# .PCD v0.7 - Point Cloud Data file format
VERSION 0.7
FIELDS x y z
SIZE 4 4 4
TYPE F F F
COUNT 1 1 1
WIDTH 1312
HEIGHT 1
VIEWPOINT 0 0 0 1 0 0 0
POINTS 1312
DATA ascii
0.10064199 -0.015044066 -0.0049188775
-0.10055803 -0.0049509266 -0.0053894981
-0.099368133 -0.005052818 -0.0048700175
0.099354208 -0.0052050259 -0.0049293381
0.10066477 -0.0050951694 -0.0048567983
-0.1005444 0.0049306895 -0.0053323326
-0.099383116 0.004814419 -0.0048641688
0.099375851 0.0048207431 -0.0050414749
0.10068683 0.0049224617 -0.0047734692
-0.10053598 0.015115305 -0.0053153043
-0.099405244 0.014923517 -0.0049863979
0.099364869 0.015082842 -0.0049215513
0.10068092 0.014893462 -0.0046965522
-0.10055838 0.025022266 -0.0052902396
-0.099400952 0.025008548 -0.0047135721
0.099376954 0.025204163 -0.0050222813
0.10068518 0.025101671 -0.0048785
-0.1005405 0.035082906 -0.0050922199
-0.099397652 0.03496829 -0.0048826374
0.099346317 0.034977358 -0.0048904005
0.10062841 0.035087023 -0.004866749
-0.10055973 0.04513954 -0.0050846064
-0.099404559 0.045082379 -0.0047531626
0.099375583 0.045048904 -0.005189714
0.10068982 0.045168154 -0.00512846
-0.10055753 0.055021361 -0.0048706071
-0.09939535 0.055005744 -0.0049484856
0.099368162 0.055097334 -0.0050652148
0.10065375 0.055096012 -0.0050816652
-0.10055057 0.064896047 -0.0051604579
-0.099402353 0.064977646 -0.0049902988
0.099399038 0.064817064 -0.0051647881
0.1006492 0.064991966 -0.0052659819
-0.10053323 0.075057067 -0.0051035923
-0.099422969 0.074941762 -0.0049723806
0.099387825 0.074870408 -0.0048659286
0.10064498 0.074929863 -0.0050857165
-0.10052595 0.085058182 -0.0051872814
-0.099413216 0.084940515 -0.0050021871
0.099397875 0.08499144 -0.0050996696
0.10067105 0.084982887 -0.0050622234
-0.10052639 0.094891697 -0.0051565212
-0.099238195 0.095109195 -0.0050196452
-0.085538901 0.099999428 -0.0051546688
-0.075229593 0.09999945 -0.0051546688
-0.064920239 0.09999945 -0.0051546688
-0.054610919 0.099999428 -0.0051546688
-0.044301555 0.099999428 -0.0051546688
-0.033992238 0.099999428 -0.0051546688
-0.024971565 0.099999428 -0.0051546684
-0.015950903 0.099999428 -0.0051546688
-0.0056415866 0.09999945 -0.0051546688
0.0046677818 0.099999428 -0.0051546688
0.01497709 0.09999945 -0.0051546688
0.025286444 0.099999428 -0.0051546688
0.035595767 0.09999945 -0.0051546688
0.045905117 0.099999405 -0.0051546688
0.054925781 0.09999945 -0.0051546688
0.063946433 0.099999405 -0.0051546688
0.074255802 0.099999405 -0.0051546688
0.084565111 0.09999945 -0.0051546688
0.099145889 0.095290616 -0.0050505525
0.10067919 0.094948865 -0.005057497
-0.1005674 0.10010011 -0.0052143168
-0.094862685 0.10009697 -0.0049133659
-0.085038953 0.10010039 -0.0050983476
-0.075125538 0.10010237 -0.0050699394
-0.065118767 0.1001026 -0.0050147818
-0.055072255 0.10010083 -0.0049297465
-0.045092035 0.1001015 -0.0050811558
-0.035081975 0.1001031 -0.0050780368
-0.024992373 0.10010614 -0.0049388958
-0.015052075 0.1001048 -0.0048903911
-0.0049844286 0.10010515 -0.0049729296
0.0049496205 0.10010323 -0.0049985978
0.015000967 0.1001033 -0.0049237935
0.025077384 0.10010502 -0.0050670141
0.035056822 0.10010447 -0.0049639735
0.04494324 0.10010741 -0.0049530626
0.054981966 0.10010409 -0.0051633301
0.06503056 0.10010222 -0.0050834552
0.075002499 0.10010094 -0.0050606038
0.085127592 0.10010164 -0.0050381664
0.094794475 0.10010265 -0.0051333606
0.10058482 0.10010637 -0.005150971
-0.10054034 -0.095343076 0.0050796606
-0.096256107 -0.098357938 0.0049960422
-0.085030004 -0.099912561 0.0050632991
-0.075011425 -0.099913672 0.0050689187
-0.064808622 -0.099911675 0.0050598131
-0.054962281 -0.099911295 0.0049755136
-0.045074943 -0.099911757 0.0050208662
-0.035044581 -0.099910423 0.0050239475
-0.025055792 -0.099911056 0.005109211
-0.014977553 -0.099910326 0.0049911882
-0.0050913696 -0.0999097 0.0050771968
0.0049740528 -0.099910282 0.0050031245
0.014987146 -0.099911571 0.0049018743
0.025007421 -0.099909611 0.0051317741
0.035001688 -0.099911511 0.0050082342
0.045057736 -0.099911466 0.0049914499
0.055101581 -0.099908628 0.0050560557
0.065101385 -0.099912681 0.0049602594
0.074974634 -0.099911913 0.0049190768
0.084947675 -0.099912055 0.0051218644
0.096378662 -0.098180167 0.0050927401
0.10059736 -0.095339939 0.004916321
-0.10054547 -0.085025012 0.0051737991
-0.099418916 -0.085132957 0.0050013536
0.099370882 -0.08497481 0.0049617006
0.10062224 -0.084817536 0.0048792241
-0.10052076 -0.074982293 0.0048750108
-0.099433728 -0.075024411 0.0048412904
0.099389806 -0.075007915 0.0049021663
0.10062447 -0.074743398 0.0051028151
-0.10056664 -0.065004364 0.0050320216
-0.099410973 -0.065050572 0.0049698921
0.099392153 -0.065111443 0.0048840288
0.10067215 -0.065205276 0.0050664209
-0.10055002 -0.054898906 0.0049756528
-0.099421367 -0.054866415 0.0047413465
0.09936408 -0.055034108 0.0050045904
0.10062794 -0.05505836 0.0048549762
-0.10056623 -0.045064427 0.0049673798
-0.099401034 -0.044699199 0.0049089547
0.099397846 -0.045048833 0.004954705
0.10065223 -0.044881869 0.0048086918
-0.10057575 -0.035263885 0.0050475164
-0.099394552 -0.034977954 0.0050725727
0.099391788 -0.03507914 0.0046870052
0.10065149 -0.035143107 0.0048220684
-0.10052533 -0.025103275 0.0050998987
-0.099398494 -0.025120819 0.0050099129
0.099348836 -0.025144363 0.0048734182
0.10066146 -0.025059506 0.0049806065
-0.10054817 -0.015110571 0.0051505771
-0.099402927 -0.014844983 0.0048596212
0.099400043 -0.015154584 0.0048607071
0.10067932 -0.015098874 0.0048511205
-0.10056821 -0.0049838163 0.004725269
-0.099416286 -0.0050048111 0.0051506511
0.099378631 -0.0052047661 0.0050237668
0.10066386 -0.005094212 0.00514042
-0.10057831 0.0049469634 0.0048679272
-0.099392369 0.0049561583 0.0050185788
0.09937489 0.0048815557 0.0048822425
0.10068542 0.0047997413 0.0051419144
-0.10056708 0.014993438 0.0048133628
-0.099408567 0.015009021 0.0049793939
0.099375069 0.01506744 0.0049018855
0.10067417 0.014937074 0.005268408
-0.10056541 0.024996892 0.0047432664
-0.099403426 0.025169715 0.0052150157
0.099355653 0.025090724 0.0048753908
0.10066433 0.024926364 0.0050879545
-0.10054979 0.035116032 0.0048883362
-0.099392667 0.034872476 0.0050328621
0.099407032 0.034982417 0.0048884135
0.1006667 0.035138026 0.0049932688
-0.10056116 0.045189928 0.0049058963
-0.099405788 0.044940144 0.0051215435
0.099380337 0.045070305 0.0047127572
0.10069031 0.045154564 0.0048282268
-0.10057259 0.055121556 0.0050603501
-0.099403895 0.055037666 0.0049552387
0.099381797 0.055011999 0.0048558358
0.10066808 0.055074822 0.0050309398
-0.10057453 0.064919367 0.0048822225
-0.099405378 0.064957246 0.0051570502
0.099410899 0.064862676 0.004819802
0.10068491 0.064988829 0.0048629879
-0.10054294 0.074894592 0.0049028136
-0.099439897 0.074905246 0.0047824634
0.099394776 0.074940756 0.0050185104
0.10066845 0.074857146 0.0047255838
-0.10057502 0.084824719 0.0049239742
-0.099418648 0.085110538 0.0048843399
0.099408843 0.085101649 0.0049633314
0.10066683 0.084970966 0.0051030423
-0.10055321 0.09493769 0.0049502016
-0.099181272 0.095327355 0.0049153129
-0.085538894 0.099999428 0.0038660017
-0.0752296 0.099999443 0.0038660017
-0.064920239 0.099999443 0.0038660017
-0.054610915 0.099999428 0.0038660017
-0.044301555 0.099999428 0.0038660017
-0.033992238 0.099999428 0.0038660015
-0.024971565 0.099999428 0.0038660017
-0.015950903 0.099999428 0.0038660017
-0.0056415866 0.099999443 0.0038660017
0.0046677818 0.099999428 0.0038660015
0.01497709 0.099999443 0.0038660017
0.025286444 0.099999428 0.0038660017
0.035595767 0.099999443 0.0038660017
0.045905128 0.099999413 0.0038660015
0.054925773 0.09999945 0.0038660013
0.063946426 0.099999413 0.0038660017
0.074255809 0.099999413 0.0038660017
0.084565118 0.099999443 0.0038660015
0.099129051 0.095290273 0.0048076194
0.1006828 0.095070489 0.0050567901
-0.1005168 0.10010447 0.0046539307
-0.094756857 0.1000976 0.0050432184
-0.085045531 0.1001012 0.0051753442
-0.075130276 0.10010273 0.0051192269
-0.065133363 0.10010301 0.0051255133
-0.055060051 0.10010174 0.0050490312
-0.045117766 0.10010187 0.0051075146
-0.035063803 0.10010325 0.0051451758
-0.025018087 0.10010669 0.0050532767
-0.015071079 0.10010509 0.0049299044
-0.004991028 0.10010496 0.0050136778
0.0050159944 0.100103 0.0050401767
0.015037282 0.10010344 0.0049239458
0.025034251 0.10010479 0.0050261524
0.035035484 0.10010437 0.00493711
0.044919003 0.10010672 0.0048768613
0.054974917 0.10010388 0.0050712777
0.065020844 0.10010227 0.0050249533
0.075005285 0.10010114 0.0050924257
0.085144356 0.10010163 0.0050381799
0.094805121 0.10010305 0.0049917344
0.10082577 0.10010072 0.0055210339
-0.10051988 -0.095394097 0.014947217
-0.096203737 -0.098348446 0.015027734
-0.085031286 -0.099914394 0.014995599
-0.075000845 -0.099913493 0.015015516
-0.065089628 -0.099912524 0.014992544
-0.054976374 -0.099909395 0.01502878
-0.044875808 -0.099909298 0.014958956
-0.035089884 -0.0999116 0.01512819
-0.024960168 -0.099910781 0.015026079
-0.014905084 -0.099908665 0.014903519
-0.0049401578 -0.099909924 0.01506897
0.0050237793 -0.099909149 0.014987926
0.014957817 -0.099908099 0.014933958
0.02493903 -0.099909097 0.015096899
0.035057481 -0.099911131 0.014982495
0.045065209 -0.099910989 0.015050543
0.054971028 -0.09991204 0.015074792
0.064974636 -0.099907219 0.01497506
0.07501445 -0.099910736 0.015098562
0.085047379 -0.099913627 0.014943197
0.096355312 -0.098283134 0.014999789
0.10060664 -0.095131516 0.015100911
-0.10053098 -0.085132338 0.015135394
-0.099395901 -0.084719941 0.014981568
0.099401176 -0.085006751 0.015063725
0.10061095 -0.084909745 0.014856803
-0.10053 -0.075030893 0.015064258
-0.099383563 -0.075054929 0.014816047
0.099386849 -0.075159088 0.014955047
0.1006336 -0.074811809 0.015154032
-0.10055287 -0.064871602 0.015088023
-0.099409997 -0.065066539 0.014950636
0.099414185 -0.065054625 0.014862111
0.1006505 -0.064963661 0.015111109
-0.1005367 -0.054817308 0.015071964
-0.099385209 -0.054989684 0.014535801
0.099390887 -0.054944679 0.014889586
0.10066743 -0.054994058 0.014963337
-0.10057069 -0.04492772 0.014957887
-0.099399194 -0.044820331 0.015086698
0.099371351 -0.044972628 0.01499102
0.10063235 -0.045103312 0.015053506
-0.10054026 -0.035148319 0.0150215
-0.099371232 -0.034982942 0.014878755
0.099370368 -0.034907471 0.014971289
0.10066389 -0.035024952 0.015221644
-0.10054583 -0.024957892 0.015016973
-0.099391393 -0.025039421 0.014837725
0.09936545 -0.025007049 0.015125287
0.10064037 -0.024910005 0.014872695
-0.10053829 -0.014813151 0.015126277
-0.099389091 -0.015064317 0.014796879
0.099394649 -0.0152224 0.015006928
0.10068385 -0.015027869 0.014815162
-0.10056236 -0.0046925014 0.015055963
-0.099390194 -0.0049234708 0.014773821
0.099400893 -0.0052852682 0.014990014
0.10066622 -0.0052799028 0.014973785
-0.10057025 0.0052008489 0.015029488
-0.099353142 0.0051287035 0.014986315
0.099405773 0.0047837291 0.014995559
0.10068721 0.0047542271 0.01515912
-0.10056331 0.014991063 0.014860203
-0.099384464 0.014989524 0.014857316
0.099383771 0.014978135 0.015074309
0.10068306 0.014877412 0.015280685
-0.10056649 0.024820082 0.014912858
-0.099386245 0.025020452 0.014948806
0.099418178 0.025021214 0.014915902
0.10066129 0.025113145 0.015119445
-0.10053388 0.035041861 0.014999179
-0.099378467 0.035099447 0.014775527
0.0993919 0.034991495 0.014826658
0.10069703 0.035105705 0.014964356
-0.10056467 0.045210395 0.015123802
-0.099396087 0.044940058 0.014738725
0.099413522 0.04514483 0.01498569
0.10065303 0.044859268 0.014967296
-0.10055041 0.055025 0.014941222
-0.099375181 0.054935094 0.014989731
0.099349447 0.055102151 0.015051743
0.10067779 0.055104177 0.015138401
-0.10057583 0.06492617 0.015057498
-0.099398412 0.064902157 0.015000007
0.099390656 0.064756416 0.015023625
0.10065873 0.064999826 0.015042379
-0.10053832 0.074887678 0.015003065
-0.099415101 0.07487563 0.014707375
0.099390045 0.07482177 0.01507346
0.10068455 0.075028405 0.0150059
-0.10055432 0.084987946 0.015110382
-0.09940248 0.084903844 0.014662641
0.099440381 0.085073896 0.01496475
0.10064886 0.084942244 0.014959082
-0.1005488 0.095042206 0.014902988
-0.099165857 0.09522216 0.01490004
-0.085538894 0.099999428 0.01417534
-0.075229593 0.099999443 0.01417534
-0.064920247 0.099999443 0.01417534
-0.054610908 0.099999428 0.01417534
-0.044301555 0.099999428 0.01417534
-0.033992238 0.099999428 0.01417534
-0.024971565 0.099999428 0.01417534
-0.015950903 0.099999428 0.01417534
-0.0056415866 0.099999443 0.01417534
0.0046677818 0.099999428 0.01417534
0.01497709 0.099999443 0.01417534
0.025286444 0.099999428 0.01417534
0.035595767 0.099999443 0.01417534
0.045905124 0.099999413 0.01417534
0.054925781 0.09999945 0.01417534
0.063946433 0.099999413 0.01417534
0.074255802 0.099999413 0.01417534
0.084565118 0.099999443 0.01417534
0.099109992 0.095467374 0.014870965
0.1006805 0.094918661 0.015054786
-0.10051134 0.10009508 0.015613908
-0.094773397 0.10009786 0.015024337
-0.084962279 0.10010259 0.015075465
-0.074905872 0.10010241 0.015224391
-0.064891532 0.10010232 0.015040489
-0.055081952 0.10010195 0.015069472
-0.045197241 0.10010405 0.015147148
-0.035240389 0.10010321 0.015168204
-0.025016868 0.10010268 0.01491696
-0.014989668 0.10010456 0.014872348
-0.0049405168 0.1001033 0.015084624
0.0049570142 0.10010537 0.014978171
0.015086284 0.10010546 0.015024742
0.025064126 0.10010537 0.015103343
0.03516629 0.10010276 0.014924147
0.045108765 0.10010499 0.014849563
0.054943349 0.10010134 0.015156742
0.064841308 0.10010394 0.015132238
0.075021937 0.10010225 0.015102659
0.085069478 0.10010274 0.015064063
0.094871067 0.10010175 0.015066649
0.10044203 0.10011898 0.015207523
-0.10051841 -0.095215037 0.024945509
-0.096137986 -0.098325327 0.025019791
-0.085006528 -0.0999135 0.0249401
-0.074905217 -0.099911302 0.025009248
-0.064908311 -0.099911481 0.025051529
-0.055053979 -0.099910572 0.025017174
-0.04511328 -0.099912323 0.025050171
-0.035174545 -0.099912629 0.02472451
-0.025094114 -0.099909537 0.025051296
-0.014961522 -0.099909648 0.024918551
-0.0050820969 -0.099909522 0.025169523
0.0049194782 -0.099908568 0.024965659
0.015075998 -0.099909663 0.024987418
0.024976585 -0.09990935 0.025096571
0.034926619 -0.099910811 0.025006652
0.044980101 -0.099910527 0.024977941
0.055122245 -0.099910073 0.024902944
0.065101631 -0.099913694 0.024934664
0.074984252 -0.099910684 0.02500253
0.085039072 -0.099912114 0.025047733
0.096463956 -0.098094247 0.024977373
0.10059361 -0.095247872 0.025207667
-0.10052354 -0.084958911 0.025092691
-0.099409491 -0.084975533 0.024922825
0.099397331 -0.084895074 0.025084032
0.10060301 -0.084762238 0.024866251
-0.10053196 -0.074932247 0.025206326
-0.099399149 -0.075244993 0.02489697
0.099402376 -0.074878454 0.025148751
0.10064095 -0.074642897 0.024772905
-0.10052378 -0.064941689 0.025075417
-0.099383928 -0.065185726 0.024921866
0.099384919 -0.064968958 0.024896964
0.1006601 -0.065029763 0.025052013
-0.10054885 -0.054926112 0.025079938
-0.099382587 -0.054990858 0.02477362
0.099372335 -0.055030029 0.025021806
0.10064341 -0.05510198 0.025032831
-0.10055539 -0.045025207 0.024965782
-0.099404976 -0.045017418 0.025092259
0.09939912 -0.044997286 0.025079643
0.10065824 -0.044957548 0.024994908
-0.10054692 -0.035030153 0.025051473
-0.099357605 -0.035024986 0.024825834
0.09935458 -0.034991141 0.024905723
0.10068043 -0.035085104 0.025243716
-0.10055839 -0.025031129 0.025038224
-0.099406376 -0.024881003 0.025076291
0.099369884 -0.025069924 0.025059948
0.10068294 -0.025060132 0.024695648
-0.10053557 -0.014841887 0.025098704
-0.099398762 -0.014921162 0.024758609
0.099356011 -0.015335691 0.024986353
0.10067308 -0.015053791 0.024942622
-0.10055386 -0.0048332708 0.02524008
-0.099375948 -0.0050008572 0.024684627
0.099351004 -0.0051755137 0.024995722
0.10068356 -0.0051243179 0.024992961
-0.10055205 0.0048833177 0.025043918
-0.099363722 0.0049561546 0.024984039
0.099375501 0.0051435344 0.025135789
0.10066466 0.0050520352 0.025076902
-0.10055844 0.014939927 0.025029104
-0.099382102 0.014971475 0.025131332
0.09937223 0.015130606 0.025123512
0.10066035 0.014932442 0.025086105
-0.10055285 0.024901502 0.025220919
-0.099357143 0.025031561 0.024856834
0.09937866 0.025078481 0.024965238
0.1006733 0.025029941 0.025083777
-0.10053934 0.035011258 0.025154233
-0.099411674 0.034926746 0.024828684
0.099345386 0.03511177 0.024941042
0.10068418 0.035135694 0.024940733
-0.10055695 0.045080714 0.025036411
-0.099393249 0.04493276 0.024780791
0.099375166 0.045209873 0.024969866
0.10070211 0.045004431 0.024937203
-0.10055777 0.055007067 0.024892792
-0.099395201 0.054948892 0.024949497
0.099361643 0.055256564 0.024978194
0.10066789 0.054884385 0.025155947
-0.10056473 0.064911485 0.025176004
-0.099397182 0.064925179 0.025064863
0.099394768 0.065007515 0.025086679
0.10072202 0.065066628 0.025009487
-0.10055496 0.074968442 0.025020782
-0.099407658 0.075005233 0.02484438
0.099391215 0.075075425 0.025055738
0.1006692 0.074867077 0.024999779
-0.10053608 0.085015617 0.025055701
-0.0994054 0.085019991 0.024688622
0.099391267 0.084916666 0.025000814
0.10067093 0.084911816 0.024995504
-0.10054903 0.094935521 0.025116317
-0.099130295 0.095159434 0.024993967
-0.085538894 0.099999428 0.024484677
-0.0752296 0.099999443 0.024484677
-0.064920239 0.099999443 0.024484677
-0.054610919 0.099999428 0.024484677
-0.044301555 0.099999428 0.024484677
-0.033992238 0.099999428 0.024484677
-0.024971565 0.099999428 0.024484677
-0.015950903 0.099999428 0.024484677
-0.0056415866 0.099999443 0.024484677
0.0046677818 0.099999428 0.024484677
0.01497709 0.099999443 0.024484677
0.025286444 0.099999428 0.024484677
0.035595767 0.099999443 0.024484677
0.045905121 0.099999413 0.024484677
0.054925773 0.09999945 0.024484677
0.063946426 0.099999413 0.024484677
0.074255794 0.099999413 0.024484677
0.084565111 0.099999443 0.024484677
0.099114887 0.095174626 0.025002258
0.10066957 0.094996735 0.024790565
-0.10047454 0.10009773 0.024106383
-0.094818518 0.10009784 0.02497944
-0.084854081 0.10009901 0.024964167
-0.074974447 0.10010243 0.025052536
-0.064979792 0.10010345 0.024956519
-0.055043451 0.10010383 0.025025336
-0.045143813 0.10010255 0.02505035
-0.035175301 0.100101 0.0249648
-0.025088577 0.10010541 0.024922011
-0.015020223 0.10010347 0.024942715
-0.0050513218 0.10010358 0.025015969
0.0049324497 0.10010405 0.024985965
0.015006918 0.10010319 0.024914291
0.024850886 0.10010415 0.025077391
0.035021894 0.10010407 0.024903063
0.045098752 0.10010544 0.024925608
0.055033416 0.10010245 0.024925664
0.065029636 0.10010102 0.025139403
0.074999772 0.10010455 0.024979852
0.085046299 0.10010438 0.025002403
0.094784349 0.1001023 0.025007501
0.10074434 0.10011172 0.025355799
-0.1005072 -0.095255502 0.035022389
-0.096229963 -0.098497055 0.034985114
-0.08502496 -0.099912353 0.034973565
-0.075073451 -0.0999135 0.03499195
-0.06498114 -0.099910624 0.035145391
-0.054976258 -0.099908076 0.034908526
-0.044890877 -0.09991008 0.035003733
-0.034996435 -0.099910468 0.034881376
-0.024981845 -0.099910431 0.034987558
-0.014870501 -0.09990909 0.035151154
-0.0049441527 -0.099907845 0.035008524
0.0049817944 -0.09990868 0.03501486
0.01495776 -0.099908717 0.034957062
0.025057206 -0.099907935 0.035082981
0.035131615 -0.099911265 0.035116188
0.04500512 -0.099910371 0.035017256
0.055015329 -0.099909127 0.034904707
0.064883545 -0.099910386 0.034956448
0.074980766 -0.099908799 0.034992639
0.084998347 -0.099911071 0.035045236
0.096430108 -0.098095082 0.034970988
0.10060246 -0.095265873 0.035232779
-0.10052079 -0.084900908 0.035139889
-0.099408247 -0.084914453 0.034870375
0.099401012 -0.084984638 0.035109892
0.10063996 -0.08475247 0.034897916
-0.10051589 -0.074879311 0.035172835
-0.099387728 -0.075058252 0.034899741
0.099395737 -0.075120613 0.03516756
0.1006493 -0.074777193 0.034680866
-0.10054481 -0.064919859 0.034989621
-0.09940213 -0.065013334 0.034907207
0.099405006 -0.065173082 0.035201106
0.10066496 -0.065189779 0.034938648
-0.10054807 -0.054827746 0.034986068
-0.099362314 -0.054991458 0.03466085
0.099375121 -0.054974895 0.035251934
0.10064535 -0.055073172 0.035083227
-0.1005525 -0.044943158 0.035179075
-0.099401861 -0.044900715 0.034992486
0.099376567 -0.044876762 0.034954417
0.10067939 -0.044839282 0.034887735
-0.10053254 -0.035023928 0.035127614
-0.099364325 -0.03501993 0.034942944
0.09938696 -0.034874991 0.035106115
0.10067283 -0.034868199 0.034836076
-0.10053694 -0.025081996 0.034912877
-0.099377126 -0.024953004 0.034932695
0.09937194 -0.025039641 0.035093538
0.10069504 -0.025001695 0.034766607
-0.10055973 -0.015003846 0.035111617
-0.099399365 -0.014967836 0.034697391
0.099369287 -0.015242177 0.035107572
0.10066947 -0.015042216 0.034649596
-0.10055441 -0.0048739742 0.035235222
-0.099373199 -0.0048849494 0.034769878
0.099397629 -0.0053145373 0.034956206
0.10069033 -0.0049979934 0.035008591
-0.10055117 0.0050891894 0.035040498
-0.099373922 0.0049131541 0.034948342
0.099390715 0.0048247376 0.035036199
0.10066327 0.00493376 0.035018146
-0.10053442 0.015141792 0.034968
-0.099373706 0.015063615 0.035033178
0.099371433 0.014970075 0.035045389
0.10069043 0.014894032 0.035053492
-0.10056192 0.025121136 0.035301279
-0.099379055 0.025211219 0.034970984
0.099390678 0.025153898 0.034991372
0.10067058 0.02505729 0.035074078
-0.1005518 0.035241794 0.035167281
-0.099376157 0.035125256 0.034686796
0.099394277 0.035138622 0.034949847
0.10067172 0.035097852 0.034756985
-0.10057202 0.04514154 0.035002839
-0.099400878 0.044967487 0.034808971
0.099391334 0.04513048 0.03512476
0.10070726 0.045215752 0.034720246
-0.1005475 0.055106923 0.03497909
-0.099415183 0.055174448 0.034819394
0.099373415 0.054943517 0.035050597
0.10068399 0.055016939 0.03473315
-0.10054834 0.065003626 0.035027143
-0.099378951 0.065052062 0.035004474
0.099401005 0.064881101 0.034992799
0.10071797 0.064858593 0.035016771
-0.10055918 0.07488291 0.035196889
-0.09939941 0.074897289 0.03483652
0.099388964 0.075069129 0.035122525
0.10067639 0.074839823 0.035103727
-0.10054526 0.084965132 0.034886885
-0.099397451 0.084946804 0.034810383
0.099406868 0.085116707 0.035273734
0.10067225 0.08496958 0.034892667
-0.10054345 0.094842419 0.03512359
-0.099146493 0.095358774 0.035011042
-0.085538894 0.099999428 0.034794014
-0.075229593 0.099999443 0.034794014
-0.064920247 0.099999443 0.034794014
-0.054610908 0.099999428 0.034794014
-0.044301555 0.099999428 0.034794014
-0.033992238 0.099999428 0.034794014
-0.024971565 0.099999428 0.034794014
-0.015950903 0.099999428 0.034794014
-0.0056415866 0.099999443 0.034794014
0.0046677818 0.099999428 0.034794014
0.01497709 0.099999428 0.034794014
0.025286444 0.099999428 0.034794014
0.035595767 0.099999443 0.034794014
0.045905121 0.099999413 0.034794014
0.054925781 0.09999945 0.034794014
0.063946426 0.099999413 0.034794014
0.074255802 0.099999413 0.034794014
0.084565118 0.099999443 0.034794014
0.099146232 0.095397823 0.035112303
0.10068979 0.095087186 0.034821671
-0.10038912 0.10009502 0.034819551
-0.094911024 0.10009857 0.035005894
-0.085112698 0.10010065 0.035060007
-0.074925296 0.10010166 0.035107832
-0.064826176 0.10010219 0.035013173
-0.054924574 0.1001011 0.035096362
-0.045155223 0.10010269 0.03513886
-0.035126131 0.10010301 0.035118595
-0.025041386 0.10010313 0.034995299
-0.014957609 0.10010612 0.035169475
-0.0050778636 0.10010263 0.035078138
0.004935971 0.100102 0.03508874
0.014964425 0.10010216 0.035012972
0.02519987 0.10010397 0.035059255
0.035189897 0.10010567 0.035265289
0.045085616 0.10010359 0.03498162
0.054960683 0.1001026 0.035038084
0.06490922 0.10010301 0.035114862
0.074943095 0.10010109 0.035137322
0.085038319 0.10010321 0.0349974
0.094770178 0.10010022 0.035104323
0.10053706 0.10010672 0.035062429
-0.10052558 -0.095305711 0.044986546
-0.096248046 -0.098388314 0.04499815
-0.085053518 -0.099912532 0.044872768
-0.074990503 -0.099913813 0.044981908
-0.064973071 -0.09991309 0.045047246
-0.055007573 -0.099913172 0.044960689
-0.044986375 -0.099910326 0.044955518
-0.034941643 -0.099911243 0.044993281
-0.025004482 -0.099909954 0.044968467
-0.014895711 -0.099910639 0.044963617
-0.0049327808 -0.099912114 0.044975758
0.0049724029 -0.099910535 0.045070786
0.014865522 -0.099910565 0.044952594
0.02481172 -0.099911273 0.045075804
0.034896258 -0.099911191 0.044949759
0.04495959 -0.09991163 0.044917945
0.054981105 -0.099908918 0.045051526
0.065161891 -0.099910244 0.044975832
0.074994721 -0.099913374 0.044942647
0.085010402 -0.099914514 0.044997931
0.096535623 -0.098070353 0.044978879
0.10061079 -0.095448069 0.045195337
-0.10051949 -0.085065752 0.044955764
-0.09938129 -0.084761277 0.044781316
0.09940096 -0.085096017 0.044922404
0.10061231 -0.085014701 0.044963438
-0.10051368 -0.074882105 0.044979583
-0.099405117 -0.075009793 0.044825677
0.09938781 -0.075113013 0.045016851
0.10063072 -0.07482063 0.044943921
-0.10053948 -0.064960189 0.044981271
-0.099384397 -0.064949065 0.045127086
0.099407166 -0.065130703 0.044978116
0.10066697 -0.06509307 0.044881456
-0.1005327 -0.05503178 0.044969738
-0.099367134 -0.054906808 0.044861287
0.099397294 -0.055003129 0.04503179
0.10064632 -0.055106811 0.045153081
-0.10054749 -0.045007668 0.045141514
-0.099391297 -0.045041054 0.044905771
0.099404849 -0.045034461 0.044891
0.10064533 -0.04485761 0.044924363
-0.10054318 -0.035094362 0.044946857
-0.099371791 -0.035074204 0.044847745
0.09940239 -0.034942377 0.045059606
0.10068557 -0.034941178 0.04474251
-0.10055295 -0.025006291 0.044839408
-0.099379025 -0.025333708 0.044903964
0.09939535 -0.025063418 0.045060743
0.10068774 -0.024950212 0.044790749
-0.10054371 -0.014946285 0.044952303
-0.099352732 -0.015103876 0.044826794
0.099385776 -0.01505848 0.045147162
0.10067093 -0.015085836 0.044850498
-0.10055271 -0.0049836012 0.045034714
-0.099403232 -0.0051004859 0.044926036
0.099387057 -0.0051510883 0.045086715
0.10064446 -0.0051600481 0.045106877
-0.10055225 0.0050410018 0.044883247
-0.099372253 0.004804797 0.044874623
0.099372379 0.0048703682 0.044909906
0.10070452 0.0045872219 0.044928376
-0.10054106 0.014924643 0.044873014
-0.099385247 0.014941526 0.044931006
0.099368587 0.015036163 0.044831261
0.10069039 0.014890212 0.044964496
-0.10055678 0.025003849 0.044926919
-0.099401213 0.02516726 0.04502584
0.099387586 0.025023637 0.045032982
0.10066391 0.024867274 0.045141768
-0.10055068 0.035121307 0.045052215
-0.099352062 0.03506339 0.044750802
0.099386714 0.034952637 0.045183428
0.10066737 0.034986798 0.044901874
-0.10055783 0.045198455 0.044909097
-0.099397756 0.045177016 0.044840466
0.099411748 0.0449665 0.045179334
0.10069234 0.045205623 0.044785012
-0.10055418 0.055019036 0.044941653
-0.099384129 0.055072196 0.044821158
0.099386372 0.054939575 0.044968501
0.10069543 0.055200335 0.044795346
-0.10053828 0.06499292 0.044923116
-0.099399365 0.065110698 0.044819668
0.099422038 0.064792641 0.044865988
0.10069066 0.065007798 0.04478728
-0.10053661 0.074967481 0.045119338
-0.09939944 0.07492952 0.044850308
0.099403366 0.074825875 0.045029484
0.10065208 0.074907318 0.045226637
-0.10054275 0.084930234 0.044928975
-0.099406123 0.084839433 0.044977631
0.099423513 0.085148565 0.044956055
0.10067908 0.084984779 0.044999003
-0.1005359 0.09497539 0.04495839
-0.099131122 0.095031895 0.045047946
-0.085538894 0.099999428 0.045103345
-0.0752296 0.099999443 0.045103353
-0.064920247 0.099999443 0.045103349
-0.054610915 0.099999428 0.045103345
-0.044301555 0.099999428 0.045103353
-0.033992238 0.099999428 0.045103345
-0.024971565 0.099999428 0.045103353
-0.015950903 0.099999428 0.045103353
-0.0056415866 0.099999443 0.045103349
0.0046677818 0.099999428 0.045103353
0.01497709 0.099999443 0.045103349
0.025286444 0.099999428 0.045103353
0.035595767 0.099999443 0.045103349
0.045905128 0.099999413 0.045103349
0.054925781 0.09999945 0.045103353
0.063946426 0.099999413 0.045103349
0.074255809 0.099999413 0.045103349
0.084565111 0.099999443 0.045103349
0.099126786 0.095391773 0.044966463
0.10069708 0.095053695 0.044956531
-0.10051554 0.10009588 0.045309745
-0.094819374 0.10009602 0.0449965
-0.08500389 0.10010044 0.04493016
-0.075075448 0.10009778 0.045085404
-0.064910196 0.10010044 0.045003634
-0.054934416 0.10010145 0.044963114
-0.045088854 0.10010172 0.045173869
-0.035175718 0.10010337 0.045224387
-0.025140638 0.10010415 0.044798724
-0.014985468 0.10010196 0.045047186
-0.0049612266 0.10010266 0.045235008
0.0050819474 0.10010309 0.044987243
0.015086746 0.10010292 0.045041941
0.025025882 0.10010377 0.045183778
0.035041679 0.10010221 0.045079932
0.045171879 0.10010303 0.044798225
0.054892048 0.10010368 0.045167662
0.064906791 0.10010241 0.045184422
0.074937165 0.1001021 0.045090646
0.085053816 0.10010015 0.04502207
0.094776683 0.10009906 0.044922937
0.10041463 0.10009837 0.04535656
-0.10047755 -0.095399417 0.054930389
-0.096147805 -0.09845084 0.054889187
-0.085002005 -0.099916577 0.054986421
-0.075063795 -0.099914812 0.055070635
-0.06497442 -0.099912681 0.054905061
-0.054971915 -0.09991204 0.054996118
-0.045033038 -0.099912859 0.055032115
-0.035101999 -0.099912211 0.055073868
-0.02495553 -0.099912919 0.055012912
-0.014861248 -0.099911325 0.054946661
-0.0049798992 -0.09991163 0.055018015
0.0050805733 -0.099911183 0.054958448
0.014967051 -0.099911638 0.054851394
0.025057781 -0.099911653 0.055077154
0.034998164 -0.099912539 0.054874677
0.045050871 -0.099913299 0.055016808
0.055053134 -0.099912271 0.055155113
0.064952768 -0.099911787 0.054975964
0.074914835 -0.099913225 0.054955326
0.084928334 -0.099913239 0.054931413
0.096538335 -0.098065421 0.054993108
0.10060668 -0.095172144 0.055243023
-0.10050817 -0.084938109 0.05513439
-0.099361554 -0.084876113 0.055104006
0.099412888 -0.085057944 0.054928474
0.10064711 -0.084743559 0.054935049
-0.1005232 -0.074999921 0.054964036
-0.099387474 -0.074860111 0.054983158
0.099399514 -0.075145766 0.05493442
0.10066379 -0.074833773 0.054977108
-0.10051052 -0.064925812 0.054884043
-0.099392258 -0.064760119 0.055022582
0.099412203 -0.065053917 0.054744076
0.10065524 -0.065055482 0.055029679
-0.10053448 -0.054823235 0.055057768
-0.099373966 -0.054787252 0.054982502
0.099365517 -0.054971624 0.054837152
0.100664 -0.055010878 0.055034406
-0.10053036 -0.044968896 0.055069726
-0.099395819 -0.044855714 0.055057175
0.099375866 -0.044971209 0.054940369
0.10064901 -0.04481294 0.055000771
-0.10054216 -0.035043336 0.054852236
-0.099374309 -0.035025176 0.054758251
0.099378489 -0.034945372 0.054804038
0.10066919 -0.035142656 0.054860309
-0.1005244 -0.025040906 0.055114828
-0.09937764 -0.025098559 0.055083055
0.099379651 -0.025003962 0.055078428
0.10070013 -0.025192432 0.055004537
-0.10052803 -0.015126737 0.055008724
-0.099350788 -0.015247897 0.055083323
0.099390782 -0.01515703 0.055098884
0.10070349 -0.015108042 0.055068284
-0.10056343 -0.0047719078 0.055038676
-0.099378258 -0.0049846061 0.055101182
0.099370927 -0.0051270523 0.054908752
0.10070299 -0.0051445253 0.054979678
-0.10054088 0.0051920679 0.054884661
-0.099378131 0.004914796 0.054863632
0.09939459 0.0048893015 0.054789443
0.10067672 0.0047833901 0.054993298
-0.10054794 0.015039437 0.054885104
-0.099411979 0.014858798 0.054880831
0.099395461 0.014964413 0.054825198
0.1006554 0.015061467 0.05472609
-0.10055348 0.024991142 0.05495178
-0.099360794 0.025119115 0.055048782
0.099375241 0.025047239 0.054859784
0.10071332 0.025095873 0.055234734
-0.10053556 0.035246581 0.055113707
-0.099361651 0.035055764 0.055133216
0.099387288 0.035054632 0.055123191
0.10067882 0.034993533 0.055004314
-0.10052821 0.045115512 0.055096567
-0.099392764 0.045047306 0.054954134
0.099404402 0.045053504 0.055082977
0.10070693 0.04516378 0.055212744
-0.10054715 0.054978963 0.054906175
-0.099378899 0.055136733 0.054838181
0.099375837 0.054975834 0.054854654
0.10068993 0.055105925 0.054884978
-0.10053892 0.064904854 0.054980315
-0.09938398 0.065138288 0.05493452
0.099377736 0.064708725 0.054840665
0.10070632 0.064831115 0.054808378
-0.10054598 0.074964903 0.055002887
-0.099411719 0.074956879 0.055039939
0.099382795 0.074766994 0.054885231
0.10068884 0.074728817 0.055102911
-0.10053714 0.085006647 0.054877993
-0.099396668 0.084851235 0.055009197
0.099414036 0.084974967 0.054847576
0.10066349 0.08474233 0.05499395
-0.10051066 0.094964646 0.055018831
-0.099127971 0.095262215 0.054946281
-0.085538894 0.099999428 0.055412684
-0.0752296 0.099999443 0.055412687
-0.064920239 0.099999443 0.055412684
-0.054610915 0.099999428 0.055412684
-0.044301555 0.099999428 0.055412684
-0.033992238 0.099999428 0.055412687
-0.024971565 0.099999428 0.055412691
-0.015950903 0.099999428 0.055412684
-0.0056415866 0.099999443 0.055412684
0.0046677818 0.099999428 0.055412684
0.01497709 0.099999443 0.055412687
0.025286444 0.099999428 0.05541268
0.035595767 0.099999443 0.05541268
0.045905121 0.099999413 0.055412687
0.054925773 0.09999945 0.055412684
0.063946426 0.099999413 0.055412687
0.074255802 0.099999413 0.055412684
0.084565118 0.099999443 0.055412684
0.099154644 0.095383219 0.054817062
0.10068129 0.095140234 0.055085614
-0.10051579 0.10009603 0.055204801
-0.094830498 0.10009839 0.054992348
-0.084972866 0.10009713 0.055109743
-0.075072177 0.1001015 0.054895215
-0.06501241 0.10010011 0.055069551
-0.05502129 0.10010023 0.055014625
-0.045099176 0.10010318 0.055168111
-0.035067089 0.10010252 0.055150207
-0.025023744 0.10010318 0.054978963
-0.014889364 0.10010573 0.055001933
-0.0050035398 0.10010208 0.055078227
0.0048242165 0.10010265 0.055072952
0.015049914 0.10010317 0.054904625
0.024960935 0.10010339 0.055071712
0.035059925 0.1001045 0.055041414
0.044978827 0.1001035 0.055049062
0.054857206 0.10010334 0.055033449
0.065048419 0.10010261 0.055159461
0.075007789 0.10010107 0.055050492
0.085001536 0.10010112 0.055040866
0.094830588 0.10010061 0.054812137
0.10084222 0.10012703 0.055353023
-0.10048388 -0.095341623 0.065044351
-0.096134745 -0.098454222 0.06503436
-0.085147738 -0.099913985 0.064908668
-0.074921146 -0.099915683 0.065158539
-0.064973898 -0.099913426 0.065082707
-0.054949239 -0.099909425 0.065114304
-0.044954672 -0.099912748 0.065024257
-0.035140563 -0.099914029 0.065150015
-0.024972688 -0.099909641 0.065064408
-0.01491402 -0.099910922 0.065050252
-0.004949905 -0.099910244 0.065082885
0.0049784374 -0.099910326 0.065051131
0.015125268 -0.099911176 0.065036252
0.024940953 -0.099910356 0.065102167
0.034968715 -0.099911436 0.065025643
0.044961482 -0.099911295 0.065049842
0.055020086 -0.099912062 0.065112643
0.065018006 -0.099912181 0.065103717
0.075048253 -0.099910639 0.065027744
0.084991261 -0.099913672 0.065169469
0.096460015 -0.098039344 0.06499093
0.10062693 -0.095489964 0.065115422
-0.10051756 -0.084891073 0.065022789
-0.09940283 -0.084839903 0.065019771
0.0993926 -0.085141614 0.06486208
0.10064433 -0.084939569 0.064992771
-0.10051338 -0.074868537 0.065017849
-0.099393442 -0.075048789 0.065035574
0.099405289 -0.075122699 0.065125711
0.10064402 -0.074621484 0.06500385
-0.10056447 -0.064986981 0.065058678
-0.099419035 -0.065030441 0.064862058
0.099426202 -0.065053351 0.064857684
0.10067175 -0.065033332 0.064876355
-0.10053157 -0.054940213 0.065133646
-0.099380128 -0.054909766 0.064908355
0.099406332 -0.054876477 0.064959332
0.10064571 -0.054974172 0.064856462
-0.1005507 -0.045056954 0.064981066
-0.099390969 -0.044839665 0.064942181
0.099395491 -0.04493627 0.064948179
0.10063468 -0.044874199 0.065054588
-0.10055421 -0.035146605 0.065006576
-0.099358954 -0.034987342 0.064810142
0.099368617 -0.034871798 0.065001369
0.10066804 -0.034983125 0.065078028
-0.10055186 -0.025118908 0.065155655
-0.099409796 -0.024933456 0.065072812
0.099363454 -0.024972362 0.065107808
0.1007017 -0.02485681 0.065350816
-0.10054228 -0.014945452 0.065193377
-0.099420771 -0.015105288 0.064842418
0.099373564 -0.015063621 0.065211803
0.10065373 -0.015156668 0.065003246
-0.10054812 -0.004793006 0.065226153
-0.099378914 -0.0048772991 0.065008163
0.099391229 -0.005079723 0.064942099
0.10066475 -0.0051511559 0.064670071
-0.10056525 0.0051638857 0.06516479
-0.099384174 0.0051394263 0.064986743
0.099395588 0.0049949279 0.064999066
0.10073045 0.0046120617 0.065146498
-0.10056778 0.014990561 0.065111987
-0.099382415 0.015024338 0.064874776
0.099394433 0.014979116 0.065033436
0.10076203 0.014651517 0.064834312
-0.10054757 0.025016177 0.065218322
-0.099379048 0.024976049 0.06491635
0.099385895 0.024899498 0.064958058
0.10066608 0.024862288 0.065222427
-0.10053278 0.035074256 0.065285921
-0.099403538 0.035058107 0.064983517
0.099369764 0.034831151 0.065075263
0.10066836 0.035102446 0.064867273
-0.10057525 0.045112252 0.065165177
-0.099394679 0.045028199 0.065036856
0.099392511 0.045002829 0.065161772
0.10070953 0.045138773 0.065215342
-0.10056072 0.05510943 0.065015957
-0.099408917 0.055097084 0.064896166
0.099351279 0.054981552 0.065098293
0.10067315 0.055291541 0.065069743
-0.10054646 0.064932242 0.064961463
-0.099389076 0.064861424 0.064947188
0.099404618 0.064813904 0.064881049
0.1006908 0.06494765 0.06503728
-0.10053049 0.074921757 0.065084405
-0.0994156 0.074866869 0.065048724
0.099407226 0.074868232 0.064976484
0.1006791 0.074800365 0.064926639
-0.10056113 0.085042037 0.064985879
-0.099415682 0.084894136 0.064765252
0.099421397 0.085005403 0.064936481
0.10067441 0.084886305 0.064917423
-0.10054418 0.094866678 0.065117911
-0.099125423 0.09515667 0.064997673
-0.085538894 0.099999428 0.065722018
-0.0752296 0.099999443 0.065722026
-0.064920247 0.099999443 0.065722018
-0.054610919 0.099999428 0.065722018
-0.044301555 0.099999428 0.065722018
-0.033992238 0.099999428 0.065722026
-0.024971565 0.099999428 0.065722026
-0.015950903 0.099999428 0.065722018
-0.0056415866 0.099999443 0.065722018
0.0046677818 0.099999428 0.065722026
0.01497709 0.099999443 0.065722026
0.025286444 0.099999428 0.065722026
0.035595767 0.099999443 0.065722026
0.045905121 0.099999413 0.065722026
0.054925773 0.09999945 0.065722026
0.063946433 0.099999413 0.065722018
0.074255809 0.099999413 0.065722026
0.084565118 0.099999443 0.065722026
0.099174894 0.095388092 0.065148279
0.10070793 0.09483169 0.06503503
-0.10041466 0.10009696 0.064353466
-0.09491156 0.10009591 0.064910412
-0.085091092 0.10009716 0.065116301
-0.074914284 0.10009761 0.065031901
-0.064820021 0.10009883 0.064970165
-0.055095483 0.10010044 0.064908691
-0.045134552 0.10010083 0.065022059
-0.035023145 0.10010197 0.065116525
-0.025031231 0.10009835 0.064943485
-0.015001124 0.10010133 0.065094687
-0.0049809376 0.10010149 0.065016679
0.0050672498 0.10010174 0.064944297
0.015039523 0.10010124 0.064894304
0.025056072 0.10010235 0.06500376
0.034992382 0.10010154 0.065059751
0.045058325 0.10009938 0.065022618
0.055007309 0.10010134 0.065054208
0.064846724 0.10010108 0.065090768
0.074974976 0.10009974 0.064961836
0.084926926 0.10010053 0.064832911
0.094801448 0.10009873 0.065052383
0.10058836 0.10010662 0.06504073
-0.10047244 -0.095304042 0.075090885
-0.096082188 -0.098513678 0.074981041
-0.084968582 -0.099912815 0.074960098
-0.075045839 -0.09991391 0.074993253
-0.064872012 -0.099912852 0.075075261
-0.055042349 -0.099912137 0.075062506
-0.045065697 -0.099912368 0.075107485
-0.034991927 -0.099913888 0.075150765
-0.024934266 -0.099914394 0.075015992
-0.014957767 -0.099911653 0.075178117
-0.0050333887 -0.099911414 0.075070255
0.0049411147 -0.099910848 0.075013779
0.014819594 -0.099910028 0.074972712
0.024885423 -0.099911116 0.075090893
0.034991644 -0.099912323 0.075182229
0.04502796 -0.09991388 0.075028725
0.05512302 -0.099912971 0.07503143
0.065127678 -0.099913143 0.075136714
0.074989296 -0.099912718 0.075118653
0.0849979 -0.099913701 0.075100012
0.096618317 -0.097946808 0.074890099
0.10061458 -0.09530738 0.074927554
-0.10049532 -0.084898904 0.075041138
-0.099387415 -0.084725738 0.074965544
0.099433772 -0.085095786 0.074888617
0.10060067 -0.08493153 0.074892193
-0.10049849 -0.075088918 0.074868642
-0.099354267 -0.074992292 0.074842729
0.099413589 -0.075057931 0.075020626
0.10067803 -0.07487379 0.075212196
-0.10050628 -0.064975314 0.075096175
-0.099383041 -0.065241896 0.074936517
0.099410273 -0.065021321 0.074964449
0.10067825 -0.065155007 0.0750072
-0.10053143 -0.054847091 0.075057253
-0.099381439 -0.055022635 0.074980833
0.09938103 -0.055004429 0.075068757
0.10064995 -0.054853909 0.075110577
-0.10054767 -0.044955898 0.075004622
-0.099386066 -0.044804204 0.075115219
0.099409699 -0.045123767 0.074920014
0.10070506 -0.044667281 0.074989788
-0.10053853 -0.035115667 0.075064525
-0.099342607 -0.034981612 0.074779138
0.099389829 -0.035097249 0.074998625
0.10066143 -0.034952335 0.075111143
-0.10054005 -0.025046214 0.075045541
-0.099387601 -0.025058432 0.075051859
0.099402212 -0.025113951 0.074995831
0.1006737 -0.025299869 0.075071476
-0.10054634 -0.01491646 0.07509423
-0.099363111 -0.014998497 0.074930191
0.099381775 -0.015182383 0.075147159
0.10067409 -0.015265429 0.075021259
-0.1005523 -0.0048672156 0.075330116
-0.099339396 -0.0048960769 0.074959829
0.099398203 -0.0050183563 0.07511133
0.10071558 -0.0051742354 0.074864037
-0.10054874 0.005060018 0.075303555
-0.099367067 0.004879917 0.074958101
0.099401541 0.0050332928 0.074962132
0.10071068 0.0050755679 0.075410031
-0.10054259 0.015094955 0.075303666
-0.099395022 0.015065925 0.075096115
0.099387579 0.015004484 0.074951932
0.10070068 0.014950573 0.075037822
-0.10054991 0.025016593 0.075324088
-0.099374212 0.025145788 0.074907258
0.099400103 0.02488431 0.07513684
0.10070358 0.02516472 0.075124301
-0.10054732 0.035022989 0.075094044
-0.099360101 0.03502721 0.074829035
0.099390246 0.035047498 0.075071231
0.10068733 0.035146791 0.074957535
-0.10054907 0.045168009 0.075162776
-0.099393763 0.044949777 0.075044647
0.099413775 0.045120519 0.07516104
0.10069903 0.044915248 0.075217463
-0.10053529 0.055107735 0.074977286
-0.099395961 0.054957289 0.074877113
0.099388219 0.055106837 0.074899964
0.10068615 0.055177029 0.074942797
-0.10054225 0.064925097 0.07502991
-0.09937603 0.064866006 0.075023592
0.099406086 0.064927824 0.07496804
0.1007011 0.065177388 0.074993901
-0.10055477 0.074910641 0.075111471
-0.099420033 0.074852854 0.075081378
0.099396981 0.07490097 0.075087398
0.10069259 0.074886233 0.075165778
-0.10051983 0.08502686 0.075045474
-0.099392422 0.085207261 0.075037487
0.099425428 0.085174181 0.074944228
0.10070996 0.084767833 0.074989408
-0.10050961 0.095074534 0.074934229
-0.099060923 0.095584318 0.074787132
-0.085538894 0.099999428 0.076031365
-0.075229593 0.099999443 0.07603135
-0.064920239 0.099999443 0.076031357
-0.054610915 0.099999428 0.076031365
-0.044301555 0.099999428 0.076031365
-0.033992238 0.099999428 0.076031357
-0.024971565 0.099999428 0.076031365
-0.015950903 0.099999428 0.076031365
-0.0056415866 0.099999443 0.076031357
0.0046677818 0.099999428 0.076031365
0.01497709 0.099999443 0.076031365
0.025286444 0.099999428 0.076031365
0.035595767 0.099999443 0.076031372
0.045905128 0.099999413 0.076031357
0.054925781 0.09999945 0.076031357
0.063946433 0.099999413 0.076031357
0.074255802 0.099999413 0.076031365
0.084565118 0.099999443 0.076031365
0.099173948 0.095331319 0.075068898
0.10072829 0.095062137 0.075293303
-0.10039944 0.10009304 0.074317969
-0.094828099 0.10009531 0.074903354
-0.084978342 0.10009953 0.074905887
-0.075077124 0.1001017 0.074922882
-0.065033503 0.10009903 0.074806117
-0.05507987 0.10010041 0.074919
-0.045147747 0.10010061 0.074859589
-0.035168093 0.10010253 0.074904941
-0.025196666 0.10010252 0.074815944
-0.014998143 0.10010051 0.074872822
-0.0050613321 0.10010328 0.074874505
0.0049796756 0.10010234 0.074896425
0.014900235 0.10010333 0.074958965
0.025055919 0.10010269 0.074958384
0.03502214 0.1001013 0.074811049
0.045054775 0.10010199 0.074789591
0.054870352 0.10010397 0.074911483
0.064892307 0.10009978 0.074899629
0.074960396 0.10010143 0.074908495
0.085124969 0.10009918 0.07487765
0.094836302 0.10010096 0.07490743
0.10073456 0.10010458 0.074360944
-0.10047872 -0.09517733 0.084991045
-0.095908329 -0.098575152 0.084791511
-0.084966958 -0.099912941 0.084895238
-0.074965805 -0.099915005 0.084973805
-0.065004401 -0.099914603 0.08497905
-0.05498809 -0.099913538 0.08513166
-0.044984628 -0.099913187 0.085061379
-0.035129227 -0.099912539 0.085043214
-0.025060222 -0.09991312 0.084983677
-0.014912012 -0.099910311 0.085066274
-0.0049280101 -0.099912696 0.08500389
0.0050414461 -0.099912435 0.084963039
0.015076967 -0.09991359 0.084940091
0.02505189 -0.099911682 0.085050069
0.035036191 -0.099912398 0.085013285
0.04503778 -0.099913284 0.085093133
0.055082757 -0.099912375 0.084978916
0.065058224 -0.099912457 0.085117109
0.075023144 -0.099913567 0.085035771
0.084978208 -0.099915884 0.085069083
0.09646479 -0.098015986 0.084950559
0.10063595 -0.095176779 0.085084975
-0.10047707 -0.084823065 0.084953308
-0.099361166 -0.084736757 0.084730394
0.099433631 -0.08504235 0.084878817
0.1006013 -0.084977962 0.084904708
-0.10050844 -0.074841298 0.08487305
-0.099361554 -0.074964285 0.084946297
0.099396251 -0.074936561 0.08498551
0.10063086 -0.074812472 0.085025162
-0.10052729 -0.064937383 0.084952801
-0.099383511 -0.064905263 0.084826596
0.099396989 -0.064920753 0.085230865
0.10068168 -0.064964347 0.08505933
-0.10052571 -0.054926563 0.084994875
-0.099368334 -0.05476699 0.084982179
0.099369846 -0.055093728 0.085093804
0.10060617 -0.055067893 0.085154735
-0.10053694 -0.044988956 0.085086346
-0.099358894 -0.044815086 0.084850088
0.099398479 -0.045011863 0.085032359
0.10062712 -0.045098148 0.08460205
-0.10054734 -0.035222266 0.085031286
-0.099354282 -0.035010096 0.084939681
0.099397965 -0.03502547 0.084887139
0.10068063 -0.035022955 0.085216679
-0.10054787 -0.025144987 0.084978119
-0.09938217 -0.025004752 0.084958643
0.099395789 -0.025061464 0.08485876
0.10066833 -0.025082747 0.084920377
-0.1005379 -0.015015805 0.085061572
-0.099375404 -0.014855076 0.084955543
0.099398591 -0.015110715 0.085071169
0.10069644 -0.01495757 0.085128009
-0.1005334 -0.004933679 0.085202612
-0.099356696 -0.0050444673 0.085073367
0.09938015 -0.0051010172 0.085091531
0.10064488 -0.0052830074 0.084853977
-0.10055535 0.0049480144 0.085245654
-0.099351317 0.0046426458 0.084730193
0.099379495 0.0049824328 0.08484859
0.10066301 0.004808492 0.085033394
-0.10054772 0.015060051 0.085166775
-0.099353425 0.014941567 0.084890224
0.099377207 0.015011409 0.084841758
0.10064571 0.014643808 0.085046805
-0.1005423 0.025017826 0.085188843
-0.099366255 0.025196904 0.085135646
0.099377997 0.025094513 0.085115544
0.10065568 0.024930386 0.084934674
-0.10054147 0.035082541 0.085085951
-0.099378489 0.034733269 0.084810413
0.099397391 0.03510198 0.085097425
0.10068829 0.034964386 0.084938198
-0.10055213 0.045176737 0.085035279
-0.099364474 0.044928141 0.084783152
0.09940505 0.045077723 0.08487983
0.10070561 0.045143422 0.085115589
-0.10056232 0.055103112 0.084949486
-0.099402383 0.055053383 0.085042611
0.099397011 0.055140283 0.084846765
0.10067232 0.05489786 0.085178614
-0.10054465 0.064993471 0.085079171
-0.099359326 0.064676046 0.084787175
0.099408232 0.064884402 0.085115932
0.100683 0.064919561 0.084723979
-0.10051695 0.074944787 0.085132271
-0.099410892 0.074973777 0.084877953
0.099393792 0.074954942 0.085109085
0.10063515 0.075057141 0.085082449
-0.10053916 0.085055627 0.084919095
-0.099434175 0.084924348 0.085049696
0.099398561 0.084935337 0.085143022
0.10067431 0.085268646 0.084937088
-0.10050526 0.095012844 0.084945515
-0.099149972 0.095161229 0.084769659
-0.085538901 0.099999428 0.085052021
-0.075229593 0.09999945 0.085052036
-0.064920247 0.09999945 0.085052036
-0.054610919 0.099999428 0.085052036
-0.044301555 0.099999428 0.085052036
-0.033992238 0.099999428 0.085052036
-0.024971565 0.099999428 0.085052043
-0.015950903 0.099999428 0.085052021
-0.0056415866 0.09999945 0.085052036
0.0046677818 0.099999428 0.085052036
0.01497709 0.09999945 0.085052036
0.025286444 0.099999428 0.085052036
0.035595767 0.09999945 0.085052021
0.045905117 0.099999405 0.085052021
0.054925781 0.09999945 0.085052036
0.063946426 0.099999405 0.085052036
0.074255802 0.099999405 0.085052021
0.084565111 0.09999945 0.085052036
0.099234812 0.095144555 0.084998183
0.10068937 0.095322959 0.085242011
-0.1003797 0.1000883 0.084241822
-0.094672613 0.10009817 0.084826015
-0.084942274 0.10009837 0.084862128
-0.07497023 0.10009587 0.085019954
-0.0650227 0.10009875 0.084876649
-0.055006601 0.10009987 0.084934965
-0.04515275 0.1001009 0.084918171
