# .PCD v0.7 - Point Cloud Data file format
VERSION 0.7
FIELDS x y z
SIZE 4 4 4
TYPE F F F
COUNT 1 1 1
WIDTH 1017
HEIGHT 1
VIEWPOINT 0 0 0 1 0 0 0
POINTS 1017
DATA ascii
-0.0021833708 -0.10311137 -0.051203035
0.0023465301 -0.10323909 -0.051287923
-0.0020265775 -0.095023409 -0.051307462
0.002563095 -0.095271915 -0.051281583
-0.0020536729 -0.085011683 -0.051256813
0.0023479855 -0.085209399 -0.051402319
-0.0021683453 -0.075123057 -0.051249299
0.0022176181 -0.075031057 -0.051405765
-0.0021944444 -0.064892486 -0.051282115
0.0023063428 -0.065024406 -0.051270299
-0.0022010142 -0.054978434 -0.05132281
0.0022518612 -0.055033624 -0.051285453
-0.0020497574 -0.044988319 -0.051341482
0.0022697449 -0.04501418 -0.051284399
-0.0021231952 -0.03495311 -0.051389653
0.0023238496 -0.03517361 -0.051321477
-0.0022150171 -0.025032682 -0.051384304
0.0025070759 -0.025099365 -0.051304206
-0.0022514139 -0.01504277 -0.051385801
0.0026098003 -0.015112691 -0.051267713
-0.002242632 -0.0049844347 -0.051378645
0.0024938921 -0.0051451446 -0.051210366
-0.0022505908 0.0048934179 -0.051384695
0.002589585 0.0049926862 -0.051298331
-0.0022239012 0.014919288 -0.051371463
0.0025360323 0.014913895 -0.051263791
-0.0020662951 0.025161453 -0.051402435
0.0022964051 0.024931237 -0.051325582
-0.0021076181 0.035092771 -0.051328305
0.0022065404 0.035335671 -0.051308032
-0.0021921424 0.045128949 -0.05133855
0.0022841124 0.045274626 -0.051324084
-0.0021218834 0.054902371 -0.051301651
0.0021936942 0.055021413 -0.051331758
-0.0021435693 0.06505651 -0.051237036
0.0021262707 0.065086678 -0.051425513
-0.002140115 0.075099662 -0.051216856
0.002250941 0.075033315 -0.051398396
-0.001957359 0.08506678 -0.051264133
0.0022064082 0.084980369 -0.051421568
-0.0019531881 0.092692174 -0.051285591
0.002286684 0.092810951 -0.051251281
-0.021545852 -0.10296412 -0.040653944
-0.014417343 -0.10364074 -0.04316102
-0.0051523549 -0.10454383 -0.04560085
0.005321892 -0.10449424 -0.045578506
0.014565611 -0.10366162 -0.043017272
0.021025218 -0.10314015 -0.040922984
-0.021288533 -0.095229089 -0.040778734
-0.014736866 -0.09508609 -0.043651763
-0.0065290211 -0.095036656 -0.048011534
0.0066867135 -0.094955795 -0.04798143
0.014992721 -0.095166154 -0.043506566
0.021257415 -0.094883449 -0.040763278
-0.021275489 -0.085335441 -0.040772032
-0.01480683 -0.08507745 -0.043634899
-0.0065497095 -0.084892884 -0.047985755
0.0066749123 -0.08488325 -0.047975514
0.014951628 -0.085076742 -0.043485444
0.021424985 -0.085221238 -0.040737946
-0.021212317 -0.075308286 -0.040852696
-0.014869862 -0.075025365 -0.043599427
-0.0064545646 -0.074999258 -0.048001055
0.0066339192 -0.07509508 -0.048003215
0.015087887 -0.074990705 -0.043431845
0.021489592 -0.07531976 -0.040659275
-0.0209847 -0.064811066 -0.040961791
-0.01487451 -0.06493029 -0.043591429
-0.0065600513 -0.064989544 -0.04796657
0.0066359192 -0.065000512 -0.048015174
0.015013671 -0.064852476 -0.043477993
0.021399327 -0.065120824 -0.040616564
-0.021099165 -0.054525189 -0.040898073
-0.014943098 -0.054953773 -0.043531105
-0.0065480168 -0.055066749 -0.047946163
0.0064602662 -0.055027898 -0.048114404
0.01487061 -0.054987345 -0.0435591
0.021255003 -0.054892924 -0.04068638
-0.021287346 -0.044599865 -0.040835712
-0.014931559 -0.044986695 -0.043543041
-0.0065443274 -0.045010481 -0.047999982
0.0065318188 -0.045041107 -0.048092932
0.01474292 -0.045045029 -0.043605972
0.021160299 -0.044409391 -0.0407818
-0.021501826 -0.034797426 -0.040743817
-0.01482713 -0.035138454 -0.043605264
-0.0064484407 -0.034970459 -0.047994986
0.0066442178 -0.034883577 -0.048036411
0.01470558 -0.03508722 -0.04362642
0.021058671 -0.035067659 -0.04085619
-0.021453541 -0.024902154 -0.0406744
-0.015055814 -0.025066609 -0.043458689
-0.0065714675 -0.025029814 -0.04792881
0.0067663337 -0.024997907 -0.047887929
0.014760206 -0.025024179 -0.043633401
0.020975145 -0.025296133 -0.040856693
-0.021530472 -0.014747609 -0.040430475
-0.014899632 -0.014879837 -0.043544251
-0.0065148543 -0.015031174 -0.047950979
0.0067078881 -0.015129059 -0.047921546
0.014658171 -0.014830917 -0.043666895
0.020723736 -0.015016948 -0.040873222
-0.021541676 -0.0047435849 -0.040421944
-0.014896038 -0.0049547567 -0.043582369
-0.0065631992 -0.0050723967 -0.047869757
0.0066893538 -0.0051079243 -0.047932036
0.014529553 -0.0049081515 -0.04375143
0.020601016 -0.0048821056 -0.040958919
-0.021511933 0.0049861134 -0.040458255
-0.015037222 0.0049814121 -0.043475073
-0.0065322914 0.0049989591 -0.04791297
0.0066844239 0.0049643493 -0.04792662
0.014653571 0.0050265286 -0.043660086
0.020676294 0.0049469606 -0.040921964
-0.021323612 0.015174413 -0.0406579
-0.01499445 0.015035338 -0.043484967
-0.0065418356 0.014967372 -0.047931753
0.006744694 0.015007526 -0.047898132
0.014809209 0.015015639 -0.04357896
0.020999299 0.015022117 -0.040871926
-0.021347387 0.02483204 -0.040706731
-0.014843744 0.025068572 -0.04357234
-0.0064921132 0.024919493 -0.047997221
0.0066666957 0.025055675 -0.047985088
0.014692032 0.025091173 -0.043616779
0.021022737 0.0248514 -0.040909316
-0.021209944 0.034949683 -0.040820673
-0.014977669 0.035082646 -0.043499999
-0.0064241844 0.035044599 -0.047991667
0.0065506105 0.034991764 -0.048097674
0.014864193 0.035160884 -0.043540902
0.021205707 0.035106357 -0.040812407
-0.021048199 0.045200475 -0.040944241
-0.014871328 0.045087229 -0.043540977
-0.0064944294 0.045146696 -0.048012253
0.0063811736 0.045100611 -0.048097815
0.014804279 0.045159373 -0.043571729
0.021292133 0.045459379 -0.040767815
-0.021087755 0.054812692 -0.040933315
-0.014853931 0.055096343 -0.043580532
-0.0065955757 0.055173501 -0.047900721
0.006542976 0.055031229 -0.048046097
0.014933061 0.055176903 -0.043486007
0.021221088 0.055337969 -0.040677026
-0.021198448 0.064812139 -0.040888626
-0.014884035 0.065103337 -0.043595549
-0.0063859685 0.065060623 -0.048002388
0.0065732789 0.065036021 -0.048030637
0.014957829 0.064993784 -0.043475945
0.021452723 0.065497071 -0.040714316
-0.02133284 0.075094737 -0.040765751
-0.01479111 0.074983552 -0.043616965
-0.006550211 0.074969634 -0.047975205
0.0066369851 0.075069375 -0.047983855
0.015009429 0.074968204 -0.043435127
0.021271164 0.075035937 -0.040778551
-0.021286691 0.085124396 -0.04080309
-0.014730349 0.085080996 -0.043590322
-0.0064943512 0.084991276 -0.048003044
0.0065670707 0.085090593 -0.048037585
0.014923975 0.085106254 -0.043489624
0.021338494 0.084683247 -0.04076485
-0.021498268 0.092632651 -0.040712684
-0.014405578 0.093324013 -0.043097928
-0.0051806313 0.094038986 -0.045543682
0.0054108328 0.09402623 -0.045613162
0.014547388 0.093261398 -0.0430196
0.021112937 0.092806041 -0.040903091
-0.033908285 -0.10337035 -0.03240234
-0.024804346 -0.10429052 -0.035417631
-0.015026557 -0.10521418 -0.034974191
-0.004965073 -0.10527119 -0.035094049
0.005166471 -0.10527056 -0.035068933
0.015053489 -0.1052364 -0.034964219
0.024806764 -0.10431649 -0.035373509
0.03380489 -0.10335537 -0.032321669
0.040270746 -0.10180396 -0.030710021
-0.041051924 -0.095296711 -0.030319944
-0.034211811 -0.094989538 -0.032684401
-0.025474476 -0.095203213 -0.037228182
-0.019376563 -0.094794042 -0.039531477
0.019340221 -0.095480859 -0.03937351
0.02546218 -0.095230095 -0.037206322
0.034223922 -0.09509284 -0.032475691
0.04066227 -0.094461523 -0.030578136
-0.040773585 -0.08344382 -0.030370975
-0.034151651 -0.085066043 -0.032680403
-0.02550514 -0.08511176 -0.037225381
-0.019093795 -0.084537685 -0.039647188
0.019114381 -0.08342199 -0.039641697
0.025501015 -0.085184298 -0.037171438
0.034127574 -0.085076787 -0.032493018
0.040553745 -0.084785111 -0.030456476
-0.040394913 -0.073302224 -0.030500393
-0.034153298 -0.074988127 -0.032626458
-0.025381697 -0.07499551 -0.037317019
-0.018940492 -0.075112738 -0.039730802
0.018956153 -0.075488001 -0.03956366
0.0256518 -0.075052179 -0.037121657
0.034085255 -0.075062662 -0.032550924
0.040263835 -0.075012393 -0.030427542
-0.040186357 -0.064298011 -0.030371895
-0.034185883 -0.064910747 -0.032648087
-0.025471102 -0.064900093 -0.037262514
-0.019315314 -0.064964004 -0.039514337
0.018753581 -0.065330818 -0.039584134
0.025700361 -0.064901732 -0.037098467
0.034092475 -0.065014206 -0.032571275
0.040518925 -0.064659841 -0.030336447
-0.04058237 -0.055444207 -0.030355744
-0.03432003 -0.055045396 -0.032564085
-0.025536882 -0.054986823 -0.037249357
-0.019463547 -0.05520834 -0.03951522
0.01872615 -0.054360025 -0.039637271
0.025626549 -0.05496629 -0.037116706
0.034172177 -0.054957442 -0.032508764
0.040387597 -0.055071179 -0.030371914
-0.040597931 -0.045239318 -0.030325323
-0.034296356 -0.044994768 -0.032606903
-0.025504978 -0.045009326 -0.037204817
-0.01913378 -0.044889007 -0.039449312
0.019156896 -0.04464414 -0.039580703
0.025641587 -0.044956084 -0.03709846
0.034185801 -0.045039117 -0.032509182
0.040461309 -0.044422925 -0.030459039
-0.040792089 -0.034295589 -0.030197315
-0.034174383 -0.034948967 -0.032630477
-0.02550241 -0.035024729 -0.037194949
-0.019130221 -0.035369899 -0.039461903
0.019340275 -0.03483383 -0.039542571
0.025665173 -0.03501232 -0.03709013
0.034087006 -0.035022378 -0.032545533
0.040309563 -0.034803454 -0.030450989
-0.040452559 -0.02586627 -0.030255072
-0.034159496 -0.024965676 -0.032608371
-0.025540551 -0.025164394 -0.03720456
-0.019010125 -0.025702167 -0.039550196
0.019048642 -0.024995083 -0.039565347
0.025611628 -0.025080346 -0.03712092
0.034077417 -0.024988413 -0.032532766
0.040292788 -0.025583241 -0.030571699
-0.040388167 -0.016918674 -0.030318722
-0.034082007 -0.014904056 -0.032613967
-0.025480578 -0.015063693 -0.037264362
-0.018939428 -0.014949799 -0.039601941
0.019000333 -0.014966839 -0.039656963
0.025441511 -0.014966237 -0.037230145
0.033948146 -0.014988096 -0.032650523
0.040632159 -0.01524352 -0.030514428
-0.040341921 -0.0055265017 -0.030169217
-0.033987977 -0.0049565798 -0.032635838
-0.025426375 -0.0050642467 -0.037345439
-0.019230776 -0.0040913224 -0.039457627
0.019325659 -0.0052900021 -0.039626133
0.025513241 -0.0050740591 -0.037179179
0.03386575 -0.0049732304 -0.032693703
0.040415958 -0.005477258 -0.030541008
-0.040312249 0.0049485778 -0.030351905
-0.03403819 0.0050192513 -0.032614402
-0.025537632 0.0050799958 -0.037247218
-0.018919908 0.0062339529 -0.039723456
0.019138617 0.0042226329 -0.039675102
0.025449773 0.0051045171 -0.0372026
0.033912968 0.0051221796 -0.032655563
0.040732861 0.0044441279 -0.030441364
-0.040786058 0.016023107 -0.030213386
-0.034119245 0.015014146 -0.032616813
-0.025638653 0.015093712 -0.037129782
-0.019112505 0.015138517 -0.039665453
0.018934401 0.014932147 -0.039598227
0.025578124 0.015169416 -0.037157055
0.034031894 0.015016822 -0.03255333
0.040246379 0.015707256 -0.030562505
-0.040616699 0.02527976 -0.030346999
-0.034179147 0.024976643 -0.032610513
-0.025520282 0.024992997 -0.037180439
-0.019162672 0.025297627 -0.039512325
0.019354329 0.024663204 -0.03956756
0.025500646 0.025007846 -0.037173327
0.034029189 0.025017552 -0.0325507
0.040370155 0.025925903 -0.030446369
-0.040601421 0.036689624 -0.030379582
-0.034371782 0.034940209 -0.032516714
-0.025525402 0.035018131 -0.037214044
-0.019146768 0.03496879 -0.039504468
0.01920883 0.033975583 -0.0394185
0.025633723 0.035079345 -0.037071727
0.034248527 0.034943961 -0.032448046
0.040505327 0.034883227 -0.030460924
-0.040635109 0.046012852 -0.030340707
-0.034247536 0.045048606 -0.032596763
-0.025511034 0.045085922 -0.037254002
-0.019461961 0.045217801 -0.03949628
0.01858834 0.044918761 -0.039750058
0.02563587 0.045154519 -0.037080843
0.034231834 0.045032382 -0.032469608
0.040311463 0.045509253 -0.030480824
-0.040242404 0.055453539 -0.030586567
-0.034196313 0.055076882 -0.032600362
-0.025494419 0.055063009 -0.037213359
-0.01935466 0.054344326 -0.039549425
0.018510828 0.055373184 -0.039763696
0.025588641 0.055058327 -0.037136525
0.034101628 0.055142742 -0.032526366
0.040459577 0.054144714 -0.030372545
-0.040333282 0.065147802 -0.030523458
-0.034160241 0.065064907 -0.03260025
-0.025346436 0.065144442 -0.037307613
-0.018894751 0.064998806 -0.039707728
0.019058291 0.065140724 -0.039568916
0.025628781 0.065050676 -0.037095297
0.034072358 0.065234818 -0.032520082
0.040169965 0.064756542 -0.03047963
-0.041326564 0.073794357 -0.030127531
-0.034224529 0.074810728 -0.03261435
-0.025532112 0.074991524 -0.037154786
-0.019101676 0.075097837 -0.039641891
0.019360041 0.07333713 -0.039465856
0.025580056 0.075104162 -0.037115764
0.034158751 0.074886113 -0.032454882
0.040436264 0.075443298 -0.03050347
-0.041129887 0.083961248 -0.030290045
-0.034164723 0.084911309 -0.03263656
-0.02544718 0.084973805 -0.037241649
-0.019423088 0.085051395 -0.039443579
0.019058838 0.08594422 -0.039622739
0.025434885 0.08498311 -0.037157141
0.034158718 0.084983103 -0.032470725
0.040846348 0.085842617 -0.030547576
-0.040213853 0.094180003 -0.030676089
-0.033941362 0.093206927 -0.032321367
-0.024826355 0.093846194 -0.035256665
-0.015112441 0.094674364 -0.035036635
-0.0049309055 0.094730124 -0.035141181
0.0050661 0.094731055 -0.035142548
0.01504187 0.094703451 -0.034983668
0.024757272 0.093834512 -0.035284333
0.033753466 0.093201563 -0.032283962
0.040315732 0.093047693 -0.030713752
-0.042506628 -0.10346398 -0.024874657
-0.035280753 -0.10505005 -0.025266841
-0.024997365 -0.10526987 -0.024991242
-0.014892533 -0.10526813 -0.024963973
-0.0049363337 -0.10527022 -0.025018416
0.005086828 -0.10526965 -0.025027921
0.014972888 -0.1052679 -0.0249644
0.02501978 -0.1052699 -0.024983801
0.035440516 -0.10495213 -0.025332803
0.042535935 -0.10344111 -0.024663141
-0.042820312 -0.094965138 -0.025174536
-0.03799491 -0.094990514 -0.029202739
0.038430221 -0.095272183 -0.02895147
0.042832389 -0.095033564 -0.024991145
-0.042831182 -0.085047081 -0.025043057
-0.038303722 -0.085003875 -0.029036241
0.038326684 -0.084854558 -0.028996486
0.042909749 -0.084979661 -0.024895944
-0.042849425 -0.075003281 -0.02509371
-0.038412564 -0.074991964 -0.028990524
0.038399067 -0.074812524 -0.029013285
0.042871341 -0.074947968 -0.025079899
-0.042840719 -0.065045953 -0.025058975
-0.038253523 -0.06487862 -0.02898257
0.038408827 -0.064937316 -0.029037992
0.042887166 -0.064999819 -0.025008956
-0.042774811 -0.055145308 -0.025172796
-0.038137846 -0.054967217 -0.028971551
0.038202435 -0.055145871 -0.02900354
0.042788014 -0.055170629 -0.02514453
-0.042758025 -0.045167837 -0.025249567
-0.038002908 -0.045059826 -0.02910104
0.038246199 -0.045018587 -0.028992854
0.042793039 -0.045038551 -0.025198298
-0.04284443 -0.034911975 -0.025185471
-0.0381415 -0.034774594 -0.029026082
0.038031511 -0.03505728 -0.029112304
0.042753372 -0.034895789 -0.025236892
-0.0428509 -0.024930304 -0.025160987
-0.038541496 -0.024564361 -0.028905645
0.038057406 -0.025106398 -0.029214144
0.042813398 -0.024954313 -0.025197918
-0.042823881 -0.01494657 -0.025199892
-0.038325436 -0.015113018 -0.028968014
0.037967149 -0.015115355 -0.02928572
0.042765506 -0.014992494 -0.025144715
-0.042815611 -0.0050284173 -0.025197608
-0.038254548 -0.0053194738 -0.028884294
0.037891619 -0.005153005 -0.029362997
0.042762335 -0.005039331 -0.025117453
-0.042775314 0.0049973354 -0.025223674
-0.038302686 0.0049499939 -0.028951865
0.038094208 0.0046075294 -0.029297356
0.042765591 0.0050411937 -0.025215929
-0.042871363 0.014986842 -0.02516398
-0.038353361 0.015107706 -0.028999895
0.038141102 0.01476319 -0.029255457
0.04273298 0.015039456 -0.025247041
-0.042809617 0.024991756 -0.025197264
-0.038220368 0.025088606 -0.029006982
0.038122199 0.024957849 -0.029072488
0.042797923 0.024974095 -0.025177963
-0.042741518 0.035084955 -0.025235826
-0.038058911 0.034983192 -0.029056937
0.038245611 0.035047866 -0.028966296
0.042805701 0.034988098 -0.025136681
-0.042775411 0.044948906 -0.025180014
-0.038042411 0.045120835 -0.029078932
0.038166828 0.044975799 -0.028999791
0.042771004 0.04498383 -0.025207797
-0.042818356 0.055051018 -0.025083806
-0.038346082 0.054894667 -0.028990816
0.038435325 0.055174232 -0.029064529
0.042856585 0.054958902 -0.02502121
-0.042846106 0.065057695 -0.025090268
-0.038410842 0.064708084 -0.028982781
0.03843388 0.064960137 -0.02895858
0.042860687 0.064999878 -0.025085768
-0.042838667 0.075012326 -0.025028486
-0.038388152 0.074791908 -0.028969765
0.038427684 0.07490404 -0.028946161
0.042874746 0.075012825 -0.024916602
-0.042787168 0.085004538 -0.025110129
-0.038143277 0.084999181 -0.029172767
0.038377967 0.085404158 -0.028958894
0.042814057 0.085064873 -0.024975033
-0.042475078 0.093041047 -0.024862587
-0.035293076 0.094493516 -0.025404837
-0.024998711 0.094731882 -0.025084367
-0.014921024 0.094732203 -0.025035955
-0.004989903 0.094729878 -0.025050014
0.0051045259 0.094730563 -0.025040554
0.014979238 0.094732627 -0.025064571
0.02498387 0.09473151 -0.025066329
0.03533693 0.094489343 -0.025435129
0.042489108 0.093133606 -0.024624394
-0.042726006 -0.10354385 -0.015095017
-0.034885149 -0.10526906 -0.015038027
-0.024921866 -0.10526843 -0.015064468
-0.01510998 -0.10526653 -0.015054681
-0.0049345689 -0.10527056 -0.015063187
0.0051738522 -0.10526998 -0.01505913
0.015175971 -0.1052658 -0.015060049
0.024908811 -0.1052689 -0.015071343
0.034875471 -0.10526964 -0.015057805
0.042724576 -0.10359078 -0.015155113
-0.043273743 -0.094989218 -0.015025006
0.04335608 -0.094916329 -0.015153871
-0.043338776 -0.084908143 -0.014880585
0.043344442 -0.084934287 -0.014911968
-0.04334582 -0.07491412 -0.014862929
0.043313108 -0.075039081 -0.014903315
-0.043381531 -0.064907081 -0.014944798
0.043290503 -0.06500183 -0.014982717
-0.043356448 -0.054866534 -0.015040401
0.043315891 -0.054930285 -0.014998055
-0.043344684 -0.044923548 -0.015083671
0.043332897 -0.045036007 -0.015061738
-0.043327909 -0.035027292 -0.015012182
0.043307494 -0.034921445 -0.015176352
-0.043314349 -0.024923164 -0.014927955
0.043286569 -0.024937561 -0.014947677
-0.043332536 -0.014863396 -0.01460417
0.043246351 -0.014922558 -0.014911009
-0.043331753 -0.0050412784 -0.01455328
0.043261208 -0.0050820466 -0.014789653
-0.04328439 0.0049677007 -0.01455545
0.043291073 0.0049759513 -0.014903382
-0.04331525 0.015156601 -0.014906223
0.043254055 0.014971443 -0.014977925
-0.043309607 0.025041932 -0.014967483
0.043289296 0.02488788 -0.015154138
-0.043331411 0.03495634 -0.015066575
0.043306913 0.034939788 -0.015073868
-0.043350846 0.04504139 -0.015136965
0.043286849 0.044984881 -0.015057315
-0.043327559 0.05501562 -0.014960335
0.043292034 0.055098854 -0.015014665
-0.043339919 0.065156661 -0.014848253
0.043270901 0.065162115 -0.014881421
-0.043304916 0.075069107 -0.014907309
0.043308105 0.075031564 -0.014975156
-0.043269549 0.085023664 -0.015022845
0.043326534 0.084989905 -0.01498023
-0.042593878 0.093389072 -0.015201242
-0.034904595 0.094733872 -0.015083826
-0.024981441 0.094732061 -0.015105653
-0.015111982 0.094732687 -0.015150946
-0.0050074356 0.094731353 -0.015115107
0.0051891836 0.094731852 -0.015098553
0.015062014 0.094733067 -0.015173349
0.024917686 0.094731949 -0.015101449
0.034915805 0.094733723 -0.01510427
0.042720094 0.093402319 -0.015230609
-0.042837039 -0.10364659 -0.004973352
-0.035103273 -0.10526783 -0.005092124
-0.02494229 -0.10526986 -0.0052292757
-0.014875484 -0.10526624 -0.0051732524
-0.004994839 -0.10526851 -0.0051832157
0.0051185889 -0.10526807 -0.0051692962
0.014887307 -0.10526617 -0.0051596076
0.024969278 -0.10526957 -0.0052044778
0.035090223 -0.10526861 -0.0051198457
0.042770199 -0.10357441 -0.005174825
-0.043389283 -0.094977386 -0.0049438188
0.043251608 -0.09502238 -0.005055937
-0.043383595 -0.085084938 -0.0049757254
0.043272071 -0.085096814 -0.0048999158
-0.043359522 -0.074956067 -0.0051265866
0.043241933 -0.074975803 -0.0048971334
-0.043345984 -0.064798735 -0.0050229835
0.043291755 -0.064889774 -0.0050362935
-0.043338202 -0.054996848 -0.005065633
0.043267962 -0.054994095 -0.0050265295
-0.043336242 -0.045019459 -0.0049193921
0.043259341 -0.044943407 -0.0049838591
-0.043359935 -0.034975216 -0.0049777841
0.043263346 -0.034979653 -0.0051020556
-0.043348167 -0.024919575 -0.0050457185
0.04326142 -0.024884131 -0.0050277924
-0.04335624 -0.014894842 -0.005050627
0.043293118 -0.014832544 -0.0050422563
-0.043329079 -0.0050440514 -0.0050313235
0.043264829 -0.005064134 -0.0050074952
-0.043369852 0.004910246 -0.0050559626
0.043292467 0.0049110809 -0.0050661513
-0.043368705 0.014921043 -0.0050788289
0.043257553 0.015022591 -0.0050444952
-0.043304563 0.024936123 -0.0049705165
0.043227468 0.02489415 -0.0050628139
-0.043346133 0.035036828 -0.004963812
0.043259751 0.034984805 -0.0049994141
-0.043332867 0.045132425 -0.005061307
0.043244969 0.045053873 -0.004926763
-0.043313064 0.054942645 -0.0050263526
0.043248873 0.054885916 -0.0050606043
-0.043314639 0.064930998 -0.0051683057
0.043227457 0.064926095 -0.0049712555
-0.043358549 0.07494881 -0.0050083268
0.043251153 0.074908249 -0.0049682534
-0.043357987 0.084968559 -0.0049815709
0.043220762 0.084963046 -0.0049418039
-0.042844515 0.093260348 -0.0049918871
-0.035112116 0.094731614 -0.0051077008
-0.024992935 0.094731599 -0.0051255529
-0.014883893 0.094732895 -0.0050643664
-0.0050080987 0.094729409 -0.0052662506
0.0051110005 0.094730459 -0.0052401847
0.014859441 0.094732396 -0.0050861803
0.024967482 0.094732001 -0.0050982814
0.035085257 0.094731756 -0.0051398478
0.042783216 0.093206458 -0.0051760981
-0.042743757 -0.10358014 0.0049789818
-0.03512207 -0.10526926 0.0047637685
-0.024934122 -0.10526992 0.0046429681
-0.014846925 -0.10526597 0.0049249008
-0.0048446148 -0.10526864 0.0047661969
0.0050332057 -0.10526796 0.0047956267
0.014894299 -0.10526595 0.0049151294
0.024906298 -0.10527022 0.0046227928
0.035058904 -0.10526972 0.0047608223
0.042637568 -0.10362603 0.0047951825
-0.043351896 -0.094936751 0.0049325665
0.043264195 -0.094949611 0.0048158555
-0.043335225 -0.084952153 0.004788097
0.043275662 -0.084903724 0.0050168731
-0.043366324 -0.074986093 0.0047740689
0.043293551 -0.074952222 0.0048208539
-0.043368522 -0.065013401 0.0050909487
0.043258622 -0.064916 0.0049918992
-0.043312538 -0.054971393 0.0050041145
0.043230765 -0.054936398 0.0048059807
-0.043336682 -0.045007523 0.0050392607
0.043213055 -0.045015089 0.0049325558
-0.043328505 -0.034946069 0.0049699796
0.043203413 -0.034973927 0.0050239018
-0.043361474 -0.024919201 0.00486178
0.043240525 -0.024901766 0.0049893735
-0.043338452 -0.014919195 0.0049089137
0.043238238 -0.015013962 0.0049918108
-0.043298792 -0.0051237028 0.0049584392
0.043216731 -0.0050940183 0.0049969819
-0.043343809 0.0050042598 0.0048784148
0.043220077 0.0050139623 0.0050402344
-0.043342806 0.015081647 0.0048699039
0.043251712 0.01503487 0.004982017
-0.043319218 0.024918757 0.0049546678
0.043195941 0.024993157 0.0049804794
-0.043305576 0.035016056 0.0050211074
0.043192361 0.035076305 0.0050276043
-0.043305211 0.044997748 0.0049985587
0.043238487 0.045114301 0.0048125382
-0.043354273 0.054907795 0.0050526247
0.043227449 0.054947123 0.0049746502
-0.043329477 0.064989924 0.0048263599
0.043257579 0.065009654 0.0049640927
-0.043306474 0.074934989 0.0047468566
0.043240421 0.074983805 0.0049435822
-0.043302502 0.084982179 0.0049827187
0.043229546 0.084969416 0.0048953095
-0.042737383 0.093333706 0.0049345973
-0.035032034 0.094732724 0.004784253
-0.02490462 0.094728403 0.0047106491
-0.014956151 0.094731629 0.0049112961
-0.0048592137 0.094731353 0.0048525184
0.0049952087 0.094732396 0.0048420853
0.014919037 0.094731435 0.004904422
0.024853544 0.094728671 0.0047079553
0.034983881 0.094733007 0.0048159859
0.042593982 0.093361504 0.0047603538
-0.042776905 -0.1037584 0.014946375
-0.034957755 -0.10526856 0.014955057
-0.024965437 -0.1052684 0.014818681
-0.014954761 -0.10526701 0.014907857
-0.0049265972 -0.10527031 0.014841269
0.0051292917 -0.10527025 0.014885088
0.014991703 -0.10526673 0.014909664
0.024987727 -0.10526889 0.014832482
0.035027891 -0.10526911 0.014959958
0.042741932 -0.10353714 0.014855768
-0.043386772 -0.094987027 0.015069259
0.043271512 -0.094952531 0.014954505
-0.043410484 -0.084960967 0.014825383
0.04324244 -0.084988609 0.015073698
-0.043382633 -0.07501258 0.014889357
0.043246605 -0.074902393 0.014945193
-0.043389596 -0.065002449 0.014983092
0.043223005 -0.064891376 0.014919491
-0.043436766 -0.055022448 0.014903359
0.043229084 -0.055005889 0.014830728
-0.043397132 -0.044989601 0.014840019
0.043254212 -0.045014102 0.014895623
-0.043366432 -0.034944475 0.01516082
0.043278981 -0.034968253 0.015001667
-0.043391719 -0.024891177 0.014875491
0.04323877 -0.024840211 0.015042219
-0.043347608 -0.014878394 0.014944837
0.043238204 -0.014788748 0.014984772
-0.043366749 -0.0049856855 0.014857254
0.043266412 -0.0050011198 0.01485254
-0.043373894 0.0049897404 0.014905974
0.043189332 0.0049495888 0.014933479
-0.043336045 0.014952205 0.014925062
0.043251641 0.01502039 0.015051803
-0.043366052 0.024938909 0.01504052
0.043263279 0.025029324 0.014912394
-0.043393165 0.034937259 0.014886039
0.043252897 0.035008699 0.014910491
-0.043406494 0.045037277 0.014874396
0.043210436 0.045099963 0.014847033
-0.043362483 0.055053152 0.014990347
0.043196704 0.055112697 0.01496414
-0.043366406 0.065046519 0.014875784
0.043208592 0.065137178 0.015006611
-0.043382935 0.074990205 0.014904686
0.043223251 0.075029597 0.015177135
-0.043370936 0.085001007 0.014959261
0.043225717 0.085004926 0.014848798
-0.042752951 0.093328603 0.014944581
-0.034958858 0.094730355 0.01488022
-0.025040325 0.094732299 0.014755073
-0.014961278 0.094731711 0.014785817
-0.0050117667 0.094730198 0.014809259
0.005150151 0.094730757 0.014853859
0.014951701 0.0947318 0.014790997
0.025000431 0.094732553 0.014736668
0.034976698 0.094730139 0.014878844
0.04264304 0.093290113 0.014957604
-0.042354058 -0.10327614 0.022791019
-0.034939278 -0.10416532 0.025307594
-0.025060557 -0.10525377 0.024878578
-0.014987059 -0.10526849 0.024931926
-0.0049251094 -0.10527101 0.024961427
0.0051252493 -0.10527031 0.02495365
0.015089929 -0.10526856 0.024923775
0.025108732 -0.10523185 0.024912419
0.034863334 -0.10418921 0.025374305
0.042264286 -0.10332353 0.022813231
-0.042609885 -0.095026948 0.023012182
-0.035589248 -0.09515062 0.02719884
-0.029144784 -0.095598973 0.029158503
0.029383143 -0.095710859 0.029538926
0.035564356 -0.095023036 0.027313594
0.042358015 -0.094966911 0.023021283
-0.042591508 -0.084965318 0.023001375
-0.035535816 -0.085070737 0.027161485
-0.029243253 -0.084210008 0.029366735
0.029391104 -0.084109701 0.02949588
0.035535686 -0.085038565 0.0273098
0.042349122 -0.085086107 0.023110392
-0.042566288 -0.074991092 0.023035623
-0.035560399 -0.07496433 0.027182991
-0.02945824 -0.075830474 0.029307734
0.028973114 -0.074901313 0.029585063
0.035548426 -0.074945472 0.027250573
0.042411994 -0.075051852 0.023027727
-0.042573862 -0.064960212 0.022934871
-0.035570737 -0.064971901 0.027227048
-0.029137921 -0.064755507 0.029628634
0.028981538 -0.064386688 0.029593254
0.035598576 -0.064867757 0.027225357
0.042479046 -0.065052845 0.022974368
-0.042420227 -0.055156924 0.022986978
-0.035518538 -0.055011157 0.027228266
-0.029071465 -0.054882072 0.029544385
0.029270235 -0.055095635 0.029525032
0.035558987 -0.055060465 0.027286941
0.042369399 -0.055136334 0.023069931
-0.042587016 -0.045033708 0.022877153
-0.035706356 -0.045057137 0.02711767
-0.029330395 -0.044548769 0.029393792
0.029124128 -0.044722609 0.029662898
0.035506871 -0.045048449 0.027366653
0.042338043 -0.045146663 0.022974471
-0.042477593 -0.034847341 0.023009622
-0.035486143 -0.035024527 0.027247079
-0.02933597 -0.034773823 0.029696429
0.029192403 -0.034503095 0.029645506
0.035499997 -0.034913123 0.027251286
0.042440817 -0.034947857 0.022863971
-0.042579759 -0.025029715 0.022812001
-0.035457835 -0.024996879 0.027270634
-0.029165078 -0.024722965 0.029716456
0.029273156 -0.025048675 0.029480772
0.035390928 -0.024924789 0.027338013
0.042451754 -0.025125876 0.023015896
-0.042496927 -0.015098727 0.022954917
-0.03549698 -0.014993286 0.027211236
-0.029369734 -0.013918314 0.02965612
0.029523032 -0.016449453 0.029218264
0.035302266 -0.014981222 0.027350603
0.042407718 -0.015073637 0.02309975
-0.042406633 -0.0051108696 0.023113664
-0.035360206 -0.0050081853 0.027247328
-0.029388541 -0.0041218819 0.029613104
0.028869281 -0.0047280588 0.029815653
0.03519411 -0.0050940849 0.027345944
0.042294078 -0.0050360863 0.023082996
-0.042502712 0.0050331284 0.022981292
-0.035512488 0.0050952821 0.02719753
-0.029558422 0.0058669378 0.029544445
0.029652655 0.0056150919 0.029038319
0.035280377 0.0049421317 0.027327247
0.042365417 0.0050051068 0.023109995
-0.04248073 0.015128737 0.022917373
-0.035462324 0.015007189 0.027258029
-0.029138025 0.01509765 0.029698007
0.029126901 0.014524743 0.029388234
0.035444085 0.014997891 0.027272543
0.042457473 0.015129832 0.023013743
-0.042514738 0.024998838 0.022898639
-0.0353988 0.024930755 0.027291957
-0.029415695 0.024773933 0.029663982
0.029184725 0.025249559 0.029581083
0.035412181 0.024958795 0.027322648
0.04237939 0.025034212 0.022920223
-0.042516399 0.034983765 0.022898925
-0.035611365 0.034984596 0.027150841
-0.029326452 0.034121823 0.029461961
0.029106537 0.035048723 0.029709177
0.035430938 0.034943141 0.027365809
0.042301752 0.035097446 0.02294706
-0.042463783 0.044939481 0.022931963
-0.03560036 0.04506192 0.027171064
-0.029115815 0.044860933 0.029600725
0.029233567 0.044456478 0.029649626
0.035540879 0.045044035 0.02727082
0.042400163 0.044891924 0.02304372
-0.04254875 0.054958075 0.022923874
-0.035627574 0.055177398 0.027178548
-0.029225508 0.05508114 0.029589616
0.029036948 0.055340961 0.029500369
0.035550039 0.0550115 0.027242305
0.042397801 0.054947101 0.023024021
-0.042596031 0.065088525 0.022962522
-0.035559904 0.06512709 0.027133055
-0.029516762 0.064528681 0.029592725
0.029006725 0.065797679 0.029528374
0.035580512 0.064993702 0.027195647
0.042474676 0.065010518 0.023015741
-0.042575467 0.075061999 0.023072693
-0.035670839 0.074899428 0.027054699
-0.029524511 0.073896065 0.029389406
0.029245542 0.074623212 0.029589931
0.035703532 0.074845515 0.027177498
0.042431735 0.074997365 0.023015451
-0.042617522 0.085029647 0.022925286
-0.035571873 0.085056081 0.027164867
-0.028991684 0.085061386 0.029320944
0.029473977 0.08477024 0.029589651
0.035464179 0.084965691 0.027318191
0.042352527 0.084994733 0.023018574
-0.042345434 0.093039326 0.022726957
-0.034871705 0.093870223 0.025281811
-0.025048664 0.094724186 0.024852885
-0.01498923 0.09473151 0.024804773
-0.0050005848 0.094728984 0.024853056
0.005115883 0.094729528 0.024848331
0.01498974 0.094732024 0.024826458
0.025076488 0.094673932 0.024919517
0.034865856 0.093875363 0.025294278
0.042143311 0.092961483 0.022809636
-0.03126955 -0.10269906 0.031032234
-0.024360824 -0.10385279 0.033087581
-0.015343701 -0.10448462 0.035621833
-0.005008196 -0.10527142 0.034955095
0.005156273 -0.10527091 0.03499569
0.015282362 -0.10446121 0.035572521
0.024299568 -0.10374904 0.033125196
0.031376828 -0.10304505 0.030802947
-0.031175425 -0.095266432 0.03095497
-0.024764448 -0.095145434 0.033677433
-0.016671494 -0.095149718 0.03814001
0.016609311 -0.095101312 0.038017824
0.024769768 -0.095196299 0.033642415
0.031217568 -0.094865471 0.030834541
-0.03146854 -0.084991425 0.030775368
-0.024789445 -0.085173637 0.033680279
-0.016726905 -0.085069552 0.038062856
0.01664079 -0.085103989 0.038012069
0.024796816 -0.085173376 0.03363017
0.030965388 -0.085073821 0.030987058
-0.031468801 -0.075206175 0.030761611
-0.024917198 -0.075064793 0.033633579
-0.016657414 -0.0750276 0.038055919
0.01670786 -0.075077116 0.038000718
0.024670104 -0.075069107 0.03371612
0.030945526 -0.075126201 0.030948984
-0.031374171 -0.065178059 0.030838294
-0.024885118 -0.064925514 0.033670969
-0.016610472 -0.064917132 0.038079876
0.0099809021 -0.063730419 0.039930701
0.016730743 -0.064970508 0.037992634
0.024787409 -0.064902619 0.033638906
0.031120995 -0.065264545 0.030907968
-0.031240569 -0.055002123 0.030777099
-0.024880456 -0.054960139 0.033634394
-0.016576197 -0.054969128 0.038113009
0.0167023 -0.055006426 0.037953559
0.024838768 -0.0549266 0.033609822
0.030947417 -0.055021081 0.030926704
-0.031334814 -0.044769451 0.0307335
-0.02484254 -0.044896904 0.033660084
-0.016517635 -0.045017935 0.038064871
0.016626071 -0.044920396 0.037994687
0.024762604 -0.044946749 0.03364652
0.030955991 -0.044777386 0.030876361
-0.03125513 -0.035018872 0.030757817
-0.024817314 -0.035017204 0.033682372
-0.016498903 -0.035052277 0.038086277
0.016550394 -0.03511367 0.037987627
0.024646424 -0.035032149 0.033749167
0.031238522 -0.034909025 0.030855983
-0.031142673 -0.025108095 0.030847626
-0.024637181 -0.025138171 0.033798672
-0.016564092 -0.024957398 0.03801202
0.016692696 -0.025091961 0.037981756
0.024750026 -0.025132701 0.033677306
0.031278696 -0.024928594 0.030850947
-0.031466402 -0.015115697 0.030821851
-0.024602056 -0.015014495 0.033787258
-0.016328841 -0.014830497 0.038220897
0.016669346 -0.014933926 0.037995074
0.024744008 -0.015009217 0.033675365
0.03132952 -0.014649197 0.030753165
-0.031761624 -0.0051396382 0.030733736
-0.024643309 -0.0050895582 0.033764839
-0.016310316 -0.0048274873 0.038208876
0.016677285 -0.0050693583 0.037979264
0.024836926 -0.0049971459 0.033631824
0.031339344 -0.0046903747 0.03078777
-0.031503264 0.004749042 0.030794624
-0.024643224 0.0050372207 0.033717822
-0.016353492 0.005001884 0.038222693
0.016708672 0.0049407911 0.038016472
0.02482269 0.0050625443 0.033633124
0.031381581 0.0055247364 0.030720791
-0.031350657 0.014601202 0.030809263
-0.024685565 0.015152885 0.033791684
-0.016462479 0.015016043 0.03811039
0.016659904 0.015013693 0.038000219
0.024733508 0.015134201 0.033691995
0.031228755 0.015326274 0.03082297
-0.031179927 0.025196938 0.030770915
-0.024704183 0.025002666 0.033730533
-0.016473858 0.025046449 0.038070068
0.016578088 0.024966657 0.037958555
0.024625139 0.024958802 0.033750225
0.031294893 0.025153061 0.030769503
-0.03136145 0.034901574 0.030697927
-0.024801338 0.035110682 0.033665281
-0.016531425 0.035113238 0.038096208
0.0166761 0.035061181 0.037959456
0.02470498 0.0350058 0.033692755
0.031040946 0.03489105 0.030873986
-0.031328138 0.04482016 0.030786324
-0.02495412 0.04520978 0.033570953
-0.016541552 0.045254707 0.038085546
0.016644794 0.045097161 0.037947204
0.02489228 0.045108777 0.033567157
0.031095084 0.045099396 0.030911978
-0.0312087 0.055157382 0.030833447
-0.024848122 0.05507398 0.033644222
-0.016514041 0.055228837 0.038122062
0.016598212 0.055128787 0.038003273
0.024817599 0.055000503 0.033589762
0.031136485 0.055376578 0.030829374
-0.03152341 0.065378055 0.0307592
-0.02491479 0.065146953 0.033610288
-0.016738955 0.065025352 0.038011584
0.016726319 0.065108426 0.037992734
0.024739001 0.065079182 0.03364427
0.031079417 0.065150581 0.030917358
-0.031401835 0.07493408 0.030742027
-0.024827335 0.075109586 0.033643436
-0.016637441 0.07497026 0.038070161
0.016522598 0.075038321 0.038040124
0.024724904 0.075002678 0.033639256
0.030979985 0.074700952 0.03092422
-0.031369347 0.085209489 0.030845044
-0.024772042 0.084951125 0.033638079
-0.016535496 0.085137285 0.038151652
0.016527597 0.085095257 0.03800213
0.024773767 0.084996589 0.03362231
0.031263385 0.084651053 0.030870918
-0.031149521 0.092423029 0.031063261
-0.024269264 0.093362674 0.033053778
-0.015317743 0.09400811 0.035554755
-0.0049565327 0.09472914 0.034859631
0.0051561538 0.094730109 0.034889005
0.015312592 0.094049282 0.035469469
0.024232456 0.093378328 0.033097915
0.031317569 0.092575461 0.030777168
-0.012237724 -0.10332046 0.041213144
-0.0045796707 -0.10392767 0.044066288
0.0046462761 -0.10392778 0.043995772
0.011988311 -0.10317884 0.041395921
-0.012369281 -0.095225438 0.041356366
-0.0051472844 -0.095074117 0.045006882
0.0050232001 -0.09500964 0.044988628
0.012222311 -0.09508498 0.041300155
-0.012397795 -0.085030079 0.04122306
-0.0050279894 -0.085023284 0.045077398
0.0050759627 -0.084903017 0.044928681
0.012199041 -0.085023046 0.04138862
-0.012591679 -0.074987113 0.041249175
-0.0049163988 -0.07508374 0.045145929
0.0050421101 -0.075046003 0.044921897
0.012216627 -0.074895062 0.04132989
-0.012423377 -0.064830817 0.041316155
-0.0049165981 -0.06499166 0.045137051
0.005103569 -0.064980693 0.044925194
0.012227737 -0.064864732 0.041337565
-0.012320798 -0.054968815 0.041376472
-0.0048135035 -0.055005476 0.045192864
0.0050767311 -0.055045784 0.044940509
0.012309929 -0.0549093 0.041274711
-0.012515925 -0.045029081 0.041287825
-0.0049111531 -0.045025472 0.045121111
0.0050892425 -0.045007758 0.044948049
0.012291508 -0.04514135 0.041357111
-0.012464459 -0.035091572 0.041260727
-0.0049199332 -0.034984045 0.045164317
0.0051348191 -0.034980882 0.044886243
0.012354309 -0.035190806 0.041326303
-0.012597635 -0.025084412 0.041279048
-0.0051204232 -0.025035953 0.045025371
0.0052940953 -0.025028979 0.04479938
0.012392403 -0.025015183 0.041233778
-0.012345808 -0.014890548 0.041364405
-0.0051191808 -0.015114071 0.045029849
0.005248541 -0.01502117 0.04483781
0.012359809 -0.014722276 0.041241806
-0.012252084 -0.0050791837 0.041431461
-0.0049003367 -0.0051208469 0.045152415
0.005243537 -0.0050451704 0.044813637
0.012369016 -0.0047476147 0.041363284
-0.012209562 0.0049754269 0.041402292
-0.0050765998 0.0049841972 0.045059536
0.0053037335 0.0049498905 0.044781212
0.012371152 0.0050975964 0.041255187
-0.012448139 0.014951242 0.041299608
-0.0051282751 0.014984514 0.045000575
0.0052798963 0.014952894 0.044803653
0.01237751 0.015066587 0.041240215
-0.01243095 0.025104254 0.041273877
-0.0049290643 0.025010431 0.045138095
0.0051782252 0.025002722 0.044872817
0.012392668 0.025245307 0.041276574
-0.012453177 0.035069168 0.041315556
-0.0048518293 0.035122044 0.045174424
0.005099379 0.035039056 0.044880804
0.012355098 0.03514111 0.04126095
-0.01238116 0.044983707 0.041352
-0.0048632808 0.045165222 0.045123897
0.0050662593 0.045132782 0.04497328
0.012237209 0.045085859 0.041296516
-0.012384669 0.055098251 0.04131807
-0.0048720301 0.055042077 0.045129422
0.005154639 0.055068169 0.04485723
0.012222992 0.054973368 0.041334461
-0.012361571 0.064999893 0.041246291
-0.0048496835 0.06504079 0.045167107
0.0050061229 0.065086223 0.044907991
0.012049124 0.065002427 0.041467912
-0.012440696 0.074806646 0.041262638
-0.0051114564 0.075064249 0.044987954
0.0050661312 0.075025097 0.044921663
0.012230768 0.074914008 0.041334819
-0.012369855 0.085043147 0.041317128
-0.0050504101 0.085062303 0.045023628
0.0050017196 0.085013121 0.044945627
0.012149584 0.085080616 0.041309822
-0.012203587 0.092946969 0.041290212
-0.0046431767 0.093501471 0.043978568
0.0046464591 0.093484253 0.043931138
0.012108314 0.092909597 0.041329511
-0.0001667738 -0.10485113 0.050120242
