# .PCD v0.7 - Point Cloud Data file format
VERSION 0.7
FIELDS x y z
SIZE 4 4 4
TYPE F F F
COUNT 1 1 1
WIDTH 530
HEIGHT 1
VIEWPOINT 0 0 0 1 0 0 0
POINTS 530
DATA ascii
-0.062953055 -0.045355447 -0.021509383
-0.05507968 -0.045801129 -0.02167974
-0.045006461 -0.045742951 -0.021678995
-0.035094034 -0.045798723 -0.021628218
-0.025034884 -0.045711726 -0.02161859
-0.014956378 -0.045624342 -0.021615731
-0.0049513788 -0.045678679 -0.021587608
0.0050095827 -0.045637753 -0.021547189
0.014992929 -0.045671228 -0.021527581
0.024967959 -0.045660995 -0.021538416
0.035013057 -0.045676593 -0.021502465
0.045017499 -0.045656707 -0.021459719
0.05509967 -0.045666389 -0.021473443
0.062968425 -0.045293473 -0.021307845
-0.063023224 -0.0349706 -0.021577373
-0.055013459 -0.03500969 -0.021789197
-0.04513938 -0.035063669 -0.021806646
-0.035144046 -0.035005763 -0.021737283
-0.025066741 -0.03506133 -0.021749457
-0.015013621 -0.0349578 -0.021710724
-0.0049445047 -0.035061546 -0.021678871
0.0051031294 -0.034964368 -0.021676296
0.015148161 -0.034957487 -0.021639148
0.025004387 -0.035072666 -0.021613196
0.035044618 -0.035012271 -0.021605087
0.045050368 -0.034984369 -0.021551773
0.05498882 -0.035002407 -0.021556666
0.06311322 -0.035035789 -0.021327911
-0.063071288 -0.025028657 -0.0215124
-0.055129994 -0.025015367 -0.021795789
-0.045188576 -0.025019411 -0.021785425
-0.035114679 -0.025059007 -0.021751653
-0.025103698 -0.02508959 -0.021741757
-0.015042034 -0.024962649 -0.021714907
-0.0050086197 -0.025036581 -0.021672109
0.0051182178 -0.025000909 -0.021658204
0.015148121 -0.025029583 -0.021628324
0.025103705 -0.025073923 -0.021625467
0.034979422 -0.025070304 -0.021587268
0.045074821 -0.024991093 -0.02155829
0.055036251 -0.02502154 -0.021545136
0.063075289 -0.025086015 -0.021349758
-0.063040018 -0.015022753 -0.021525906
-0.055046491 -0.01499448 -0.02181094
-0.045112856 -0.015046547 -0.021790244
-0.035186302 -0.015097269 -0.021747224
-0.025134262 -0.015065143 -0.021734746
-0.015104607 -0.015031653 -0.021701699
-0.0050327969 -0.015053261 -0.021684194
0.0051670363 -0.015001675 -0.021656901
0.015170811 -0.015054486 -0.021634232
0.025081152 -0.015057819 -0.021620143
0.034953512 -0.015091859 -0.02158016
0.044992618 -0.015039811 -0.021563008
0.055024967 -0.015002028 -0.021534299
0.063052297 -0.014995599 -0.021367546
-0.063021287 -0.0049444111 -0.02158211
-0.054978315 -0.0049822703 -0.021795953
-0.045040574 -0.0049966672 -0.021767849
-0.035100728 -0.0050347769 -0.021743864
-0.025094531 -0.0049593407 -0.021725317
-0.014935215 -0.0049720183 -0.021704178
-0.0048864344 -0.0049904594 -0.021690443
0.0052174358 -0.0049715079 -0.021666281
0.015197444 -0.0049781431 -0.02163255
0.02512583 -0.0049662935 -0.021595042
0.03500307 -0.0050030397 -0.021605032
0.045063179 -0.0050079622 -0.021553528
0.055006418 -0.0049234089 -0.021539327
0.063206963 -0.0049730605 -0.02134523
-0.063017048 0.0050302544 -0.021577992
-0.0549706 0.0050713578 -0.021798508
-0.045037042 0.0050626504 -0.02176507
-0.035109013 0.0051082219 -0.021733634
-0.025056347 0.0050598606 -0.021728847
-0.014889936 0.0050709881 -0.021699164
-0.0048538628 0.0051040198 -0.021680895
0.0052591381 0.0050496827 -0.021661187
0.015201928 0.0051010037 -0.021628115
0.025116377 0.0051032449 -0.021601502
0.035003085 0.0051239021 -0.021599429
0.045082483 0.0050872387 -0.021553541
0.055016242 0.0050198799 -0.021537894
0.063209735 0.0050743516 -0.02136777
-0.063057944 0.015022817 -0.02151634
-0.055081081 0.01501955 -0.02179686
-0.045127023 0.015069518 -0.021788346
-0.035180766 0.015130068 -0.021743417
-0.02512314 0.01505693 -0.021732483
-0.015052866 0.015019585 -0.021697124
-0.0049874499 0.015041953 -0.021677298
0.0051775426 0.015075653 -0.02165146
0.015184834 0.015066165 -0.021633429
0.025154658 0.01505704 -0.021613071
0.034994509 0.015128631 -0.021578748
0.045012306 0.015021514 -0.021553569
0.055027295 0.015031876 -0.021531297
0.063065715 0.01494102 -0.021354517
-0.063069567 0.025036559 -0.021504834
-0.055111412 0.025028955 -0.021789774
-0.045169629 0.025035724 -0.021774899
-0.035116509 0.025123704 -0.02174258
-0.025093243 0.025076684 -0.02173119
-0.015055141 0.024975119 -0.021701179
-0.0049839201 0.025017785 -0.021664228
0.005133362 0.025004616 -0.021651136
0.015132655 0.025046544 -0.02161452
0.02505948 0.025068441 -0.021620683
0.034958337 0.025113704 -0.021574177
0.045040023 0.024988633 -0.021552566
0.055049945 0.025028408 -0.021532485
0.063071199 0.025107985 -0.021341361
-0.063013472 0.034983881 -0.021559032
-0.05499509 0.034977596 -0.021773182
-0.045167893 0.035040446 -0.02178414
-0.03516005 0.035018105 -0.021725118
-0.02505533 0.035024699 -0.021731177
-0.014993353 0.034956403 -0.021699343
-0.0049563935 0.035019521 -0.021665776
0.005068515 0.034963697 -0.021654898
0.015151547 0.034945559 -0.021626869
0.025021683 0.035040852 -0.021594062
0.035049088 0.034970928 -0.021588815
0.045073621 0.034985993 -0.021539703
0.055015281 0.034979507 -0.021542706
0.063116312 0.035022937 -0.021320131
-0.063012607 0.045015119 -0.021531673
-0.055087991 0.045107231 -0.021781521
-0.04502188 0.044975068 -0.021787783
-0.035120249 0.045066223 -0.021729315
-0.025049819 0.045016564 -0.021705519
-0.014932099 0.04498462 -0.021703321
-0.0049015544 0.045033395 -0.021678163
0.0050502042 0.045038253 -0.021629022
0.015048981 0.045012914 -0.021609735
0.024979787 0.044979326 -0.02161683
0.034993004 0.045018271 -0.021580204
0.044992093 0.044978689 -0.02153356
0.055114593 0.045096789 -0.021549109
0.063024208 0.044994462 -0.021322345
-0.062059462 0.050070383 -0.021023925
-0.055026252 0.05006732 -0.021062534
-0.04515481 0.05006586 -0.021008786
-0.035233695 0.050067078 -0.021017674
-0.024886403 0.050066568 -0.021052111
-0.014855552 0.050070096 -0.021026159
-0.0049090474 0.050070349 -0.020996086
0.0047224886 0.050071277 -0.02100344
0.015021576 0.050072812 -0.021019246
0.025051927 0.050069075 -0.020961909
0.035355709 0.050067719 -0.020994749
0.045193993 0.050069779 -0.020891765
0.055056732 0.050071713 -0.020881148
0.062330578 0.050072722 -0.021046916
-0.061660554 -0.045471095 -0.0183623
-0.055509176 -0.047152441 -0.014438074
-0.04502596 -0.049932528 -0.014957127
-0.034961451 -0.049931344 -0.014933256
-0.025038915 -0.049931869 -0.014926504
-0.014869186 -0.049930457 -0.015007603
-0.0049279542 -0.049932543 -0.014937404
0.0049501271 -0.049932078 -0.014954564
0.014869097 -0.04993052 -0.015007596
0.025038816 -0.049931969 -0.014926512
0.034961384 -0.049931377 -0.014933228
0.045025885 -0.049932588 -0.014957112
0.055630554 -0.047212586 -0.014422251
0.06183419 -0.04550904 -0.018284028
-0.061739992 -0.035161767 -0.018371252
-0.05660883 -0.03502319 -0.01350474
0.056772973 -0.035007033 -0.013372886
0.061926574 -0.035020377 -0.018258655
-0.061685327 -0.025071127 -0.018290337
-0.056597948 -0.025027001 -0.013506296
0.056769285 -0.025042919 -0.013369025
0.061951082 -0.02484226 -0.018279884
-0.061637256 -0.015027211 -0.018253852
-0.056561388 -0.01491939 -0.013466178
0.056683205 -0.014954297 -0.013280872
0.061854146 -0.015029424 -0.018175853
-0.061696887 -0.0048448439 -0.018245302
-0.056628756 -0.0048738075 -0.013549184
0.056744765 -0.0048566335 -0.013359181
0.061855935 -0.0048198625 -0.01817321
-0.061690085 0.0048945984 -0.018235441
-0.056614053 0.0050624008 -0.013536328
0.0567174 0.00502156 -0.01334845
0.061872184 0.0049527013 -0.018204132
-0.061636016 0.015013923 -0.018257447
-0.056567207 0.014944397 -0.013473728
0.056719173 0.014988214 -0.013318857
0.061831627 0.015054644 -0.018169004
-0.061670784 0.025014546 -0.018302994
-0.056592651 0.025000107 -0.013516589
0.056767479 0.024987359 -0.013373783
0.06194745 0.024909584 -0.018275594
-0.061709136 0.03511478 -0.018350109
-0.056601916 0.034979749 -0.013518265
0.056757163 0.034975916 -0.013374666
0.061904415 0.0350351 -0.018246738
-0.061730091 0.044992145 -0.018365532
-0.056471974 0.045165353 -0.01353187
-0.044362299 0.049999818 -0.015118784
-0.034793954 0.049999818 -0.015118788
-0.025225615 0.04999977 -0.015118788
-0.014787421 0.049999837 -0.015118786
-0.0043492415 0.049999822 -0.015118786
0.005219108 0.049999811 -0.015118782
0.014787459 0.049999792 -0.015118784
0.025225656 0.049999814 -0.015118782
0.03479398 0.049999807 -0.015118784
0.044362333 0.0499998 -0.015118786
0.056672249 0.045150828 -0.013472095
0.061870754 0.045102719 -0.01822692
-0.061361484 0.050070524 -0.018672355
-0.054223195 0.050069544 -0.01570899
-0.04499083 0.050069239 -0.014941616
-0.034986649 0.050071325 -0.014949469
-0.025020909 0.050071154 -0.0149185
-0.014905171 0.050071917 -0.014975385
-0.004987523 0.050071109 -0.014929685
0.004964455 0.050071061 -0.014927065
0.014905095 0.050071925 -0.014975378
0.025020864 0.050071225 -0.014918479
0.034986615 0.050071303 -0.014949463
0.044990759 0.050069299 -0.014941614
0.054315157 0.050068635 -0.015663182
0.061329115 0.050065398 -0.018649124
-0.051633622 -0.045500826 -0.0083333002
-0.045481686 -0.047193807 -0.0044794236
-0.034922678 -0.049933046 -0.0048424797
-0.024936736 -0.049932584 -0.0049892929
-0.014900788 -0.049930677 -0.0048862561
-0.0049302438 -0.049933378 -0.0050109038
0.004969208 -0.049932946 -0.0050056535
0.014900689 -0.04993061 -0.0048862351
0.024936624 -0.049932539 -0.0049892752
0.034922615 -0.049933199 -0.0048424667
0.045515019 -0.047247253 -0.0044021257
0.051831633 -0.045582764 -0.0083040027
-0.051731285 -0.035070829 -0.0083109234
-0.046562549 -0.034942009 -0.0034153573
0.046696398 -0.03493876 -0.0033347998
0.051864825 -0.035099845 -0.0081962701
-0.051709216 -0.025010128 -0.0082868515
-0.046553355 -0.024943227 -0.0034139301
0.04668127 -0.024965277 -0.0033148692
0.051880199 -0.025041597 -0.0082165403
-0.051666413 -0.01494035 -0.0082524223
-0.046509966 -0.014943404 -0.0034034725
0.046675511 -0.015034737 -0.0033175587
0.051835582 -0.014923135 -0.0081716059
-0.05170764 -0.0049815145 -0.0082663028
-0.046606664 -0.00491268 -0.0034985279
0.046553034 -0.0049285078 -0.0032352556
0.051768329 -0.0049118428 -0.0080970917
-0.051691361 0.0051962323 -0.008254678
-0.046601728 0.0050768657 -0.0034905942
0.046551682 0.0050105196 -0.0032369916
0.051751457 0.0050886674 -0.0080939839
-0.051663294 0.014994894 -0.0082596559
-0.046505772 0.014982285 -0.00339601
0.046670906 0.015028353 -0.0033135226
0.051822517 0.014928572 -0.0081902202
-0.05169123 0.025011329 -0.0082864193
-0.046536569 0.024944752 -0.0034096895
0.04667731 0.02500225 -0.0033313555
0.051884547 0.025064355 -0.0082330676
-0.051725928 0.035137683 -0.0083275158
-0.04653101 0.034956232 -0.0034090809
0.046641655 0.034992047 -0.0032961841
0.051852815 0.03508088 -0.0081898291
-0.051687427 0.044983272 -0.0083173523
-0.046517711 0.045147337 -0.0035464945
-0.034793951 0.049999826 -0.0046805912
-0.025225615 0.049999774 -0.0046805926
-0.014787422 0.049999844 -0.0046805916
-0.0043492415 0.049999818 -0.0046805926
0.005219108 0.049999811 -0.0046805907
0.014787462 0.049999796 -0.004680593
0.025225652 0.049999814 -0.0046805912
0.034793988 0.049999814 -0.004680593
0.046582274 0.045173239 -0.0034038369
0.051911067 0.045118649 -0.0082967654
-0.051446181 0.0500734 -0.0085493298
-0.044157378 0.050069947 -0.0057466505
-0.035010584 0.050069582 -0.0049350844
-0.024954697 0.050070308 -0.0049707303
-0.01492102 0.050071955 -0.0048803464
-0.0050132843 0.050070405 -0.0050093746
0.004995869 0.050070297 -0.0050126673
0.01492093 0.050072119 -0.0048803426
0.024954628 0.050070263 -0.0049707098
0.035010505 0.05006966 -0.0049350737
0.044228397 0.050069757 -0.0057251807
0.051456545 0.050071262 -0.0085715186
-0.041697476 -0.045292482 0.0016983366
-0.035508942 -0.047188211 0.0055593415
-0.025028253 -0.049930904 0.0051167733
-0.014957437 -0.049930613 0.0050602397
-0.004933483 -0.049931124 0.0050954884
0.0049781753 -0.049930844 0.0050799362
0.014957334 -0.049930673 0.0050602346
0.025028169 -0.049930945 0.0051167728
0.035556149 -0.047170859 0.00562206
0.041770209 -0.045357954 0.001744869
-0.041737802 -0.035065547 0.0017284338
-0.036678504 -0.034968905 0.0065017035
0.036645547 -0.034995932 0.0066614691
0.04184014 -0.035062436 0.0017780702
-0.041752234 -0.025005814 0.0017271135
-0.036681715 -0.024926588 0.006488014
0.036681563 -0.024922643 0.0066103009
0.041780904 -0.025023779 0.00184649
-0.041800361 -0.014936457 0.0017495005
-0.036671862 -0.014961379 0.0065020751
0.036650438 -0.014936999 0.0066505396
0.041802336 -0.015005532 0.0018053596
-0.041847438 -0.0049299872 0.0016399708
-0.036666967 -0.0049966075 0.0065059708
0.03664786 -0.0049255411 0.0066845128
0.041742992 -0.0050287726 0.0018203689
-0.041787732 0.0050846441 0.001675496
-0.036682609 0.0051122787 0.006491174
0.03664989 0.0050357683 0.0066777593
0.041747238 0.0051227221 0.0018050467
-0.04175806 0.01490347 0.0017525206
-0.036637556 0.014972472 0.0065399981
0.036634851 0.01492133 0.0066513768
0.041796722 0.014995151 0.0018067771
-0.041711979 0.024960535 0.0017363429
-0.03662283 0.024936225 0.006545553
0.036659308 0.024910882 0.006625073
0.041751403 0.025024278 0.0018487849
-0.041677266 0.034952562 0.0017635251
-0.036623482 0.034961235 0.0065330337
0.036652084 0.034986127 0.0066288337
0.041820876 0.035089586 0.0017997959
-0.041712474 0.04480977 0.0017403759
-0.036535632 0.045125239 0.0065364311
-0.025225615 0.049999777 0.0048877513
-0.014787421 0.049999844 0.0048877508
-0.0043492415 0.049999822 0.0048877504
0.005219108 0.049999811 0.0048877508
0.014787461 0.0499998 0.0048877508
0.025225656 0.049999814 0.0048877508
0.036606871 0.045076292 0.0066030747
0.04182332 0.04487979 0.001750809
-0.041171167 0.050074015 0.0013265833
-0.034188915 0.050070841 0.0043851691
-0.025005506 0.050071046 0.0051705413
-0.014954765 0.050071824 0.0050532143
-0.004976735 0.050071947 0.0051030554
0.0050169802 0.050072066 0.0050952132
0.014954686 0.050071917 0.0050532264
0.025005454 0.050071072 0.0051705493
0.034216933 0.050070561 0.0044082105
0.041142907 0.050066072 0.001394156
-0.031695545 -0.045449238 0.011741539
-0.025546089 -0.047206555 0.015512142
-0.014839395 -0.049931057 0.014880367
-0.0049683144 -0.049933542 0.015002464
0.0050131269 -0.049932998 0.015010555
0.014844553 -0.049931265 0.014878146
0.025547618 -0.047181372 0.015555505
0.031698316 -0.045436651 0.011755223
-0.031745169 -0.035054348 0.011767177
-0.026643416 -0.034973819 0.016596712
0.026618246 -0.034905333 0.01664893
0.031730793 -0.035068143 0.011824598
-0.031822778 -0.025126912 0.011718451
-0.026713882 -0.025008021 0.016492615
0.026651366 -0.024982333 0.016600881
0.031801015 -0.025104091 0.011794819
-0.031831663 -0.015027339 0.011705418
-0.026685966 -0.015038282 0.01651952
0.026734298 -0.015030737 0.016534504
0.031730771 -0.0150472 0.011790167
-0.031666171 -0.0048377928 0.011847576
-0.026640702 -0.0049947021 0.016551409
0.026732318 -0.0049020518 0.016572323
0.031785063 -0.005020679 0.011767473
-0.031699415 0.0049666953 0.011794256
-0.02663351 0.005109949 0.016573014
0.026732439 0.0050814133 0.016557882
0.031774297 0.0051116026 0.011765123
-0.031828269 0.015036689 0.011691578
-0.026719119 0.015059428 0.016484415
0.026722603 0.015029524 0.016537108
0.031711131 0.014990724 0.011804352
-0.031780545 0.025040498 0.011756251
-0.026698271 0.025039762 0.016494215
0.026651602 0.025005404 0.016595537
0.031770226 0.025017742 0.011803695
-0.031727158 0.035021819 0.011781336
-0.026615521 0.034972556 0.016591163
0.026625181 0.034936655 0.016618853
0.031747267 0.035091318 0.011803824
-0.031731352 0.045014467 0.011759194
-0.026585395 0.045132101 0.016441377
-0.014787422 0.049999848 0.014456091
-0.0043492415 0.049999818 0.014456093
0.005219108 0.049999807 0.014456096
0.014787459 0.0499998 0.014456095
0.026587194 0.045135412 0.016502993
0.031710427 0.045051713 0.011805255
-0.03137492 0.050070658 0.01139729
-0.024215709 0.050070144 0.014277614
-0.014921261 0.050071996 0.014996625
-0.0049994984 0.050069679 0.015000588
0.0049936003 0.050069731 0.015005383
0.014921182 0.050071891 0.014996631
0.024208849 0.050070144 0.01425114
0.031527758 0.050063878 0.011305277
-0.021691261 -0.045594398 0.021737106
-0.015467762 -0.047280487 0.025514614
-0.0049617006 -0.049932223 0.025012795
0.0050210063 -0.049931858 0.025016099
0.015516623 -0.047227986 0.025450917
0.021718077 -0.045609023 0.021720057
-0.02172325 -0.035003055 0.02180599
-0.016630981 -0.034971397 0.026641145
0.016562102 -0.035029799 0.026624979
0.02175433 -0.035078038 0.021799959
-0.021758379 -0.025068136 0.021779839
-0.016627138 -0.024935206 0.026622405
0.016535452 -0.024953898 0.026668288
0.02174503 -0.025107382 0.021811534
-0.021807155 -0.015058707 0.021748831
-0.016635539 -0.014925025 0.026644133
0.016515411 -0.015013288 0.026708087
0.021823382 -0.015063142 0.021686384
-0.021755258 -0.0049557961 0.021733947
-0.016649485 -0.0049123373 0.02666313
0.016600514 -0.0049421145 0.026592517
0.021813465 -0.0049530817 0.021652007
-0.021755163 0.0050886576 0.021708548
-0.016649034 0.0050625093 0.026673632
0.016579904 0.0050409082 0.02660767
0.021782607 0.0050172806 0.021673571
-0.02179067 0.01506474 0.021751394
-0.01660927 0.014962568 0.026662996
0.016506605 0.014963028 0.026698925
0.021810746 0.015048666 0.02168162
-0.021782335 0.025031319 0.021749057
-0.016605176 0.024961086 0.026634745
0.016556403 0.024939032 0.026640709
0.021768101 0.025049871 0.021767661
-0.021713108 0.034977213 0.021803316
-0.016602637 0.034977727 0.026656425
0.016507886 0.034996647 0.026655573
0.021736013 0.035075523 0.021800783
-0.021723598 0.045063261 0.021776993
-0.016501814 0.045162305 0.026600162
-0.0043492415 0.049999818 0.02489429
0.005219108 0.049999811 0.024894286
0.016531002 0.045220915 0.02650105
0.021742078 0.045147359 0.02178272
-0.021442799 0.050069973 0.021158606
-0.014132956 0.050070643 0.02416382
-0.0049217395 0.050071124 0.025070138
0.0049161226 0.050071094 0.025070749
0.014116466 0.05007115 0.024122197
0.021414999 0.050070506 0.021210488
-0.011716242 -0.045511018 0.031771462
-0.00549147 -0.047226649 0.035583675
0.0055326037 -0.047167499 0.035507292
0.011707257 -0.045436807 0.031668376
-0.011723895 -0.034958862 0.031843077
-0.0065544136 -0.035040703 0.036776084
0.0065948735 -0.034984071 0.036563706
0.011842006 -0.03504676 0.03169835
-0.011730019 -0.025162177 0.0318297
-0.0065842383 -0.025009139 0.036737528
0.0066306423 -0.025027731 0.036530126
0.011794325 -0.025083518 0.031768948
-0.01181612 -0.015134475 0.031782676
-0.0066851159 -0.014989202 0.036623683
0.006694437 -0.015061455 0.036461536
0.011710074 -0.014899992 0.031812958
-0.01177939 -0.004952366 0.031754084
-0.0066428636 -0.0049749836 0.036683381
0.006709347 -0.0049747084 0.036462095
0.011764835 -0.0049775126 0.031748973
-0.011765708 0.0050632702 0.031777721
-0.0066607022 0.0050802636 0.03666744
0.0067067514 0.0050711101 0.036459688
0.011755521 0.0051076584 0.031743657
-0.011807012 0.015052061 0.031789556
-0.0066671642 0.014992152 0.036625147
0.0066953781 0.015056291 0.036449008
0.011717729 0.014943949 0.031805832
-0.011714634 0.025128977 0.031833671
-0.0066100252 0.024954576 0.036696911
0.006629203 0.025017107 0.036530837
0.011798614 0.02505978 0.031742886
-0.01169206 0.03495134 0.031844005
-0.0065444307 0.035017636 0.036769476
0.006585944 0.03496094 0.036556371
0.011820145 0.034931161 0.031717002
-0.011736436 0.044931173 0.031846762
-0.0064772274 0.045147408 0.036640327
0.0065167756 0.045073833 0.036521677
0.011743857 0.044932831 0.031716958
-0.011202795 0.050071891 0.031391796
-0.0042115878 0.050070267 0.034272607
0.0042626061 0.05007071 0.034267329
0.011259841 0.050072931 0.031277981
-0.0017616159 -0.04552146 0.041735251
0.0017278979 -0.045434661 0.041583177
-0.0017592014 -0.034892198 0.041861758
0.0017179555 -0.034894411 0.041691151
-0.0017488648 -0.025136285 0.041800842
0.0017781772 -0.024967486 0.041630216
-0.0018176935 -0.015118913 0.04180282
0.0017527501 -0.014877577 0.041627496
-0.0017685327 -0.0050639329 0.041833922
0.0017905203 -0.0049590929 0.041610066
-0.0017667767 0.0050783218 0.041823484
0.0017884613 0.0050856043 0.041620012
-0.0018246413 0.015123648 0.041790869
0.001760347 0.01488004 0.041618988
-0.0017449229 0.025051108 0.04177903
0.0017436204 0.024972443 0.041655943
-0.0017329131 0.034855153 0.041863687
0.0017121186 0.034997404 0.041661434
-0.0017934142 0.045006905 0.041803956
0.0017631497 0.04493605 0.041629065
-0.0013054071 0.050069466 0.041314185
0.0012919627 0.050069705 0.04124321
